ply
format ascii 1.0
element vertex 1742
property float x
property float y
property float z
end_header
0.847598 -0.653211 4.88269 
-0.846457 -0.612367 4.57668 
-0.508894 -0.615387 4.62003 
-0.111382 -0.630508 4.71805 
-0.111382 -0.630508 4.71805 
-0.0463356 -0.623837 4.7008 
0.325421 -0.637611 4.79454 
-0.160518 -0.621852 4.69767 
-0.160518 -0.621852 4.69767 
0.242049 -0.626835 4.74719 
-0.976823 -0.601374 4.55169 
-0.419766 -0.611481 4.64453 
-0.249711 -0.615699 4.66565 
0.273365 -0.626152 4.74798 
-1.38302 -0.586631 4.46188 
-0.31889 -0.613469 4.6657 
-0.936553 -0.595985 4.56263 
-0.526742 -0.616603 4.70336 
-0.584816 -0.60338 4.63513 
-0.533867 -0.603051 4.6292 
-1.05247 -0.588 4.53681 
-1.0395 -0.588157 4.54244 
0.259579 -0.617639 4.76687 
0.259579 -0.617639 4.76687 
0.66279 -0.629472 4.85278 
0.678186 -0.511285 4.0455 
-1.32922 -0.576781 4.46557 
-0.380323 -0.600382 4.67862 
-0.0224363 -0.606316 4.71371 
-0.461898 -0.592088 4.63921 
-0.461898 -0.592088 4.63921 
0.583962 -0.653575 5.09173 
-0.932454 -0.579405 4.55262 
-0.423406 -0.590882 4.65098 
0.360957 -0.606704 4.79536 
0.585929 -0.607494 4.79455 
0.643094 -0.608437 4.82147 
-0.0519792 -0.599062 4.76765 
0.551093 -0.603411 4.79523 
-1.14276 -0.561909 4.514 
-0.49562 -0.574497 4.61121 
-1.50329 -0.551602 4.4433 
-0.85613 -0.569354 4.58314 
-0.749647 -0.571823 4.60281 
-0.434694 -0.577949 4.65771 
0.55734 -0.595312 4.8487 
0.590879 -0.593166 4.83326 
0.148653 -0.578573 4.73304 
0.238925 -0.580077 4.7502 
-0.67739 -0.562126 4.61394 
-0.648735 -0.558543 4.61408 
0.659633 -0.58516 4.82428 
-1.31812 -0.54298 4.48796 
0.566328 -0.581372 4.81101 
-0.583631 -0.553916 4.62354 
0.0712053 -0.565927 4.7356 
-0.927559 -0.545155 4.56648 
-0.902551 -0.543664 4.56686 
0.584706 -0.573148 4.81609 
-0.73563 -0.545226 4.6084 
-0.655294 -0.54705 4.6272 
-1.31327 -0.525119 4.4853 
-0.488889 -0.543133 4.61735 
-0.0353308 -0.550678 4.69301 
0.0838687 -0.553055 4.72408 
0.186891 -0.556754 4.75142 
-0.628696 -0.540422 4.6219 
-1.13297 -0.527209 4.52889 
-0.573958 -0.540256 4.63588 
-0.573958 -0.540256 4.63588 
-0.133238 -0.547399 4.705 
-1.29625 -0.520032 4.49607 
-1.26505 -0.521125 4.49834 
-0.833616 -0.530363 4.58528 
-0.0940222 -0.542135 4.70573 
0.456593 -0.468367 4.12171 
0.0727692 -0.543347 4.73392 
0.557376 -0.549716 4.81382 
-1.33175 -0.512695 4.4883 
-0.963236 -0.521646 4.56042 
-1.22976 -0.509118 4.49808 
-0.785158 -0.522064 4.59772 
-0.555992 -0.523531 4.61782 
0.354892 -0.540949 4.77427 
-1.38218 -0.504489 4.47408 
-1.17055 -0.508698 4.51445 
-0.841967 -0.51628 4.58327 
0.495557 -0.538649 4.77553 
0.557346 -0.584156 5.15565 
-1.30055 -0.504406 4.49114 
-1.30055 -0.504406 4.49114 
-0.858567 -0.515625 4.58732 
0.308189 -0.535921 4.78558 
0.389804 -0.538154 4.79803 
-0.887203 -0.511979 4.57235 
-1.46946 -0.496135 4.45866 
-1.39498 -0.495669 4.46381 
-1.39498 -0.495669 4.46381 
-0.670132 -0.511129 4.62044 
-0.608749 -0.512603 4.63714 
-0.493578 -0.513989 4.64691 
-1.26738 -0.49474 4.4968 
-1.41046 -0.482391 4.46967 
-1.41046 -0.482391 4.46967 
-0.74522 -0.498106 4.61359 
-0.5133 -0.499962 4.64633 
0.110489 -0.509477 4.74352 
0.110489 -0.509477 4.74352 
0.281717 -0.509663 4.76122 
-0.886495 -0.488284 4.57331 
-0.458184 -0.497941 4.65525 
0.354172 -0.511814 4.78866 
0.384511 -0.508407 4.7601 
-1.34966 -0.476047 4.48552 
-1.00694 -0.48184 4.54898 
0.401146 -0.507539 4.8025 
-1.40119 -0.467925 4.46944 
-1.07134 -0.4755 4.53834 
-1.07134 -0.4755 4.53834 
-0.148624 -0.495677 4.7284 
-0.0820146 -0.493345 4.71117 
0.335586 -0.497674 4.75762 
-1.30816 -0.467079 4.49424 
-0.494493 -0.481063 4.65384 
-1.26317 -0.464235 4.4999 
-0.747206 -0.474746 4.61238 
-0.626368 -0.477025 4.63812 
-1.37511 -0.458757 4.47949 
-1.37511 -0.458757 4.47949 
-0.85706 -0.471525 4.59142 
-0.85706 -0.471525 4.59142 
0.350579 -0.481781 4.76913 
-0.310856 -0.472699 4.68697 
0.0174301 -0.476399 4.72647 
0.412262 -0.485589 4.82148 
-0.70962 -0.459522 4.59748 
-0.662225 -0.461431 4.61423 
-0.614096 -0.463299 4.62569 
-0.515856 -0.468038 4.67026 
-0.515856 -0.468038 4.67026 
-0.533478 -0.465351 4.66304 
-0.472371 -0.462958 4.66708 
-0.421777 -0.465876 4.66513 
-0.223285 -0.467998 4.69608 
0.0328004 -0.471176 4.73349 
-0.936444 -0.452319 4.5774 
-0.804839 -0.449924 4.5976 
-0.722605 -0.449096 4.59776 
0.271815 -0.465987 4.75279 
-0.770533 -0.448006 4.60292 
-1.26043 -0.435328 4.49728 
-0.0864724 -0.454185 4.70676 
0.318738 -0.459106 4.79511 
-0.945637 -0.440948 4.59564 
-0.491857 -0.446199 4.65802 
-0.461207 -0.44535 4.66387 
-0.314266 -0.443977 4.67902 
0.0171009 -0.449895 4.7259 
0.402457 -0.456156 4.81554 
-0.443857 -0.441505 4.65725 
-0.0526524 -0.445648 4.71043 
-0.2015 -0.437749 4.70436 
-0.296256 -0.434429 4.68229 
-0.296256 -0.434429 4.68229 
-0.133984 -0.437976 4.7067 
0.385912 -0.44372 4.79572 
-1.51376 -0.411418 4.44735 
-0.539704 -0.428295 4.63006 
-0.539704 -0.428295 4.63006 
-1.45132 -0.40863 4.45577 
-1.4349 -0.408523 4.47283 
-1.1531 -0.413769 4.52669 
-0.923665 -0.41456 4.55509 
-0.923665 -0.41456 4.55509 
1.2956 -0.46301 5.05306 
-0.04016 -0.428452 4.73047 
-1.49077 -0.400192 4.45497 
-1.21418 -0.406569 4.51283 
-1.21418 -0.406569 4.51283 
-0.95583 -0.409019 4.5503 
-0.377211 -0.419534 4.66548 
-0.631812 -0.414852 4.62996 
-0.497062 -0.417284 4.65756 
-0.497062 -0.417284 4.65756 
-0.171063 -0.416762 4.72687 
1.26586 -0.444853 5.03586 
-1.29857 -0.391485 4.50702 
-0.943847 -0.396236 4.57578 
0.271822 -0.416099 4.81581 
-1.15445 -0.387025 4.53163 
-1.15445 -0.387025 4.53163 
-0.517044 -0.401037 4.67883 
-0.373555 -0.400617 4.67885 
-0.156433 -0.404796 4.72727 
-0.984048 -0.388437 4.57618 
-0.225043 -0.400571 4.70951 
0.218162 -0.401903 4.743 
-0.34891 -0.397632 4.68982 
-0.528187 -0.390736 4.64225 
0.419596 -0.401212 4.81631 
-0.388804 -0.386762 4.67599 
-0.388804 -0.386762 4.67599 
0.205629 -0.393954 4.76092 
0.274178 -0.396297 4.77757 
-1.50135 -0.367068 4.45375 
-1.50135 -0.367068 4.45375 
0.34103 -0.389909 4.73293 
-0.942269 -0.374846 4.57003 
-0.761494 -0.375236 4.60377 
-1.47083 -0.363912 4.46401 
-0.612514 -0.377118 4.62761 
-1.33633 -0.362558 4.48301 
-1.241 -0.36422 4.51437 
-0.423848 -0.376134 4.67271 
-0.192812 -0.378163 4.69412 
0.175972 -0.384707 4.76173 
-0.263571 -0.376943 4.70263 
-0.263571 -0.376943 4.70263 
-0.996006 -0.364618 4.56778 
1.28539 -0.40048 5.01185 
-1.14829 -0.357555 4.53104 
-0.937699 -0.362837 4.58236 
-0.916574 -0.362829 4.58171 
-0.359134 -0.370793 4.68921 
0.165318 -0.371556 4.7542 
-0.415118 -0.365306 4.69081 
-0.55723 -0.360256 4.65143 
-1.31039 -0.344481 4.5022 
-0.23044 -0.360233 4.68176 
0.346483 -0.368652 4.79757 
0.44408 -0.360639 4.80078 
-1.53926 -0.335287 4.45979 
0.809536 -0.367306 4.88156 
-0.462442 -0.348808 4.66636 
-0.444664 -0.347462 4.6733 
-1.32155 -0.332681 4.49716 
-0.127283 -0.345933 4.71189 
-0.0714702 -0.345894 4.73082 
-0.530946 -0.336878 4.65218 
-0.530946 -0.336878 4.65218 
-0.310377 -0.33636 4.67426 
0.797444 -0.350063 4.89455 
9248.35 -4952.94 56185.8 
1.32953 -0.364768 5.05493 
1.40363 -0.356202 5.07731 
0.34193 -0.329862 4.76828 
0.34193 -0.329862 4.76828 
0.414911 -0.329318 4.77502 
0.167962 -0.330811 4.78838 
-0.150188 -0.322397 4.77786 
0.0704303 -0.321637 4.75599 
0.824385 -0.333687 4.90717 
1.32658 -0.344779 5.05247 
-0.538224 -0.313761 4.6647 
-1.47419 -0.295489 4.47289 
-0.0158909 -0.312886 4.73634 
-0.0158909 -0.312886 4.73634 
0.781643 -0.324563 4.8914 
-1.00347 -0.299651 4.56383 
-0.549317 -0.303712 4.67361 
-0.082416 -0.306423 4.72236 
0.252774 -0.302755 4.7579 
0.0318216 -0.302769 4.76283 
0.769762 -0.308898 4.87718 
-0.318886 -0.29339 4.68838 
0.142709 -0.297241 4.73537 
-0.636799 -0.287604 4.64881 
-0.584742 -0.283081 4.64057 
-0.584742 -0.283081 4.64057 
-0.502859 -0.283392 4.67273 
0.0774361 -0.287132 4.72858 
0.7765 -0.29322 4.86569 
0.0213956 -0.285524 4.73986 
0.0446972 -0.285531 4.73438 
0.479206 -0.287839 4.81324 
1.26057 -0.304888 5.04117 
-0.000110298 -0.280823 4.72286 
0.196498 -0.281377 4.7228 
0.449395 -0.284763 4.79375 
-1.48878 -0.255328 4.45625 
0.217646 -0.272234 4.77719 
0.810863 -0.282051 4.91448 
-0.131039 -0.266886 4.71979 
-0.118323 -0.268904 4.74117 
0.262752 -0.270893 4.78032 
0.138204 -0.263772 4.74971 
0.200639 -0.258067 4.74103 
-1.48705 -0.240632 4.46162 
0.226044 -0.256056 4.73257 
0.755223 -0.264847 4.91988 
-0.497402 -0.249299 4.67823 
-0.280779 -0.251805 4.71396 
-0.000190926 -0.252652 4.74143 
0.0802648 -0.253368 4.75938 
0.873656 -0.260697 4.93818 
-0.0571415 -0.248508 4.73155 
0.447301 -0.250983 4.81821 
0.142737 -0.24662 4.75494 
0.335759 -0.249988 4.79791 
-0.29955 -0.24051 4.71053 
0.740902 -0.247583 4.8829 
0.740902 -0.247583 4.8829 
0.288516 -0.237292 4.80103 
0.862856 -0.245221 4.93683 
0.246413 -0.232301 4.76349 
0.440831 -0.235737 4.80643 
-1.49173 -0.214308 4.46229 
-0.147881 -0.228957 4.70143 
0.821567 -0.235947 4.90135 
-0.840817 -0.216335 4.59747 
-0.0576413 -0.222963 4.72859 
-0.0576413 -0.222963 4.72859 
0.727844 -0.233072 4.89503 
-0.32595 -0.22642 4.70991 
-0.0824884 -0.222352 4.73585 
-0.0970344 -0.217553 4.72961 
0.445621 -0.219592 4.77111 
0.467628 -0.22075 4.79178 
-0.390605 -0.214829 4.7107 
-0.287076 -0.213085 4.6712 
0.244648 -0.219026 4.79354 
-0.166027 -0.21165 4.70882 
0.290492 -0.215619 4.80233 
-0.95188 -0.2033 4.5786 
-0.402914 -0.2085 4.66219 
0.72035 -0.219396 4.90813 
0.72035 -0.219396 4.90813 
0.211669 -0.207232 4.73598 
-0.422179 -0.203503 4.6796 
0.0982672 -0.205581 4.73578 
-1.51686 -0.19035 4.45206 
0.809141 -0.21064 4.9182 
-0.8396 -0.193474 4.59759 
0.856697 -0.210731 4.92571 
0.875069 -0.20624 4.94978 
-0.49604 -0.191857 4.6681 
-0.397751 -0.192775 4.66452 
-0.144197 -0.188507 4.72351 
-0.219688 -0.186546 4.71391 
-0.159687 -0.186019 4.73163 
0.0501425 -0.186511 4.7567 
0.0673869 -0.189287 4.76764 
-0.258617 -0.179237 4.68982 
0.265355 -0.184034 4.81804 
-1.43521 -0.162769 4.47043 
-1.43521 -0.162769 4.47043 
0.234479 -0.170041 4.77711 
0.305195 -0.169828 4.78442 
0.439108 -0.171538 4.8107 
-1.50113 -0.15659 4.45902 
0.479541 -0.167141 4.82246 
-0.269473 -0.159214 4.71011 
-0.269473 -0.159214 4.71011 
0.32227 -0.157277 4.72579 
0.450333 -0.159996 4.81942 
0.109869 -0.156126 4.76045 
-1.52281 -0.14098 4.46406 
-1.50536 -0.141721 4.4606 
-0.574621 -0.135889 4.6506 
-0.425054 -0.1325 4.67535 
0.152706 -0.136036 4.77753 
0.27599 -0.13355 4.7381 
0.27599 -0.13355 4.7381 
-0.0927231 -0.130568 4.70418 
0.784804 -0.134984 4.93579 
0.784804 -0.134984 4.93579 
0.327304 -0.123795 4.78913 
-0.281173 -0.120527 4.70778 
-0.281173 -0.120527 4.70778 
-0.266351 -0.120902 4.69307 
-0.0351554 -0.12233 4.73617 
-0.172436 -0.118742 4.72585 
-0.172436 -0.118742 4.72585 
-0.172436 -0.118742 4.72585 
0.0061393 -0.118812 4.73702 
0.0061393 -0.118812 4.73702 
-0.424914 -0.112207 4.67343 
-0.543706 -0.108713 4.66457 
0.150068 -0.109671 4.74879 
-1.48256 -0.0995174 4.47829 
-1.48256 -0.0995174 4.47829 
0.438687 -0.108376 4.80232 
0.867855 -0.114555 4.92285 
-0.18468 -0.105705 4.73178 
0.0956793 -0.101932 4.7546 
0.188741 -0.10433 4.78299 
0.463722 -0.103582 4.80434 
-0.00517034 -0.0942506 4.75477 
-0.0417298 -0.0888421 4.70902 
-0.0417298 -0.0888421 4.70902 
0.240885 -0.0887903 4.78022 
0.240885 -0.0887903 4.78022 
-0.265487 -0.0827367 4.70952 
0.378029 -0.0830964 4.73478 
0.270514 -0.080746 4.76341 
-0.840704 -0.0737622 4.61207 
-0.129339 -0.0752964 4.69823 
-0.856251 -0.0725531 4.58724 
0.17751 -0.0752554 4.77123 
0.231913 -0.0713623 4.7599 
0.741762 -0.0740311 4.99665 
-1.41768 -0.058914 4.48282 
0.0438366 -0.0608143 4.76057 
0.243352 -0.0604104 4.76723 
0.243352 -0.0604104 4.76723 
0.124866 -0.060228 4.75666 
0.201605 -0.0587763 4.71904 
-0.323769 -0.0544082 4.70432 
0.353663 -0.0560713 4.78948 
-1.48539 -0.0469714 4.46549 
1.27591 -0.0561064 5.10723 
0.732509 -0.0506104 4.94779 
-0.366143 -0.0409025 4.69699 
0.0973528 -0.041663 4.72592 
0.15497 -0.0433271 4.73902 
-0.515942 -0.0382878 4.69147 
0.204478 -0.0358113 4.75793 
-0.527243 -0.0353435 4.64877 
0.0484559 -0.0342391 4.76019 
0.744226 -0.036133 4.95005 
0.744226 -0.036133 4.95005 
0.786465 -0.0385823 4.95921 
0.786465 -0.0385823 4.95921 
0.0196813 -0.0323887 4.74594 
0.481171 -0.0330769 4.84481 
0.481171 -0.0330769 4.84481 
-0.401555 -0.0298548 4.70372 
-0.147116 -0.0300871 4.72051 
0.81367 -0.0238396 5.03985 
0.353758 -0.0194771 4.77556 
-0.961184 -0.0156189 4.58694 
0.121459 -0.00779735 4.74415 
0.139091 -0.00522103 4.71636 
0.139091 -0.00522103 4.71636 
0.515864 -0.00695932 4.84719 
0.871757 -0.00621773 5.03502 
-0.56319 -0.00375383 4.65371 
0.794305 -0.0056312 4.99303 
0.63366 0.00174295 4.99054 
-0.400654 0.00607885 4.63073 
-0.400654 0.00607885 4.63073 
0.294519 0.00433509 4.78025 
0.855006 0.00994764 5.00316 
36775.9 13235.7 -2.47536e+006 
0.365648 0.0139389 4.80711 
0.637833 0.028127 3.92064 
0.432005 0.0170838 4.77185 
-0.341546 0.0180713 4.70589 
0.124046 0.0184144 4.77142 
0.253978 0.0179521 4.78736 
-0.656711 0.0220225 4.6463 
-0.450712 0.0220953 4.68606 
-0.278629 0.0247365 4.71462 
-0.179039 0.0239002 4.7711 
0.0984544 0.0302353 4.76153 
0.136098 0.0326113 4.75224 
0.512057 0.0317433 4.90266 
-0.347371 0.0341729 4.71927 
-0.347371 0.0341729 4.71927 
-0.566221 0.0413301 4.66188 
-0.566221 0.0413301 4.66188 
0.379906 0.044483 4.77797 
1.1509 0.0519164 5.12991 
0.351399 0.0528196 4.78322 
-0.51717 0.057038 4.66981 
-0.51717 0.057038 4.66981 
0.230941 0.0598063 4.78615 
0.254903 0.0594189 4.73362 
0.403592 0.0575158 4.67274 
0.748638 0.0600938 4.98724 
0.748638 0.0600938 4.98724 
-0.831028 0.0611288 4.63436 
-0.0899811 0.0644813 4.73321 
-0.575694 0.0639652 4.65794 
0.740978 0.0721435 5.01655 
-0.469935 0.0702854 4.66832 
0.218521 0.0703926 4.74344 
-0.620618 0.0716601 4.65496 
-0.270606 0.0764671 4.73623 
-0.19873 0.0763009 4.69249 
0.377698 0.0824989 4.77479 
0.59712 0.0832499 4.93364 
-0.433524 0.0830623 4.69276 
1.28529 0.0898305 5.14024 
0.207051 0.0878815 4.71798 
1.04427 0.0906879 5.08321 
1.04427 0.0906879 5.08321 
-0.179066 0.0885935 4.71433 
0.877311 0.100568 5.07322 
-0.436689 0.101262 4.71384 
0.13472 0.102109 4.69477 
-0.337061 0.105615 4.6834 
-0.0710298 0.106359 4.73557 
0.264905 0.108488 4.77541 
-0.41168 0.108498 4.68951 
-0.646485 0.114246 4.65062 
-0.261259 0.120031 4.70422 
0.705728 0.130398 5.00896 
0.705728 0.130398 5.00896 
0.424075 0.12454 4.71653 
0.745676 0.132524 5.05236 
0.942955 0.141346 5.12125 
0.728205 0.139846 5.03507 
-0.0934553 0.131192 4.70529 
0.141988 0.136436 4.79528 
0.141988 0.136436 4.79528 
0.172192 0.132313 4.657 
-0.233147 0.137017 4.72518 
-0.37665 0.138705 4.69642 
-0.148632 0.141913 4.75988 
-0.646973 0.140424 4.64403 
-0.581212 0.14091 4.65731 
0.563459 0.154528 5.09065 
0.616734 0.155082 5.05178 
-1.44064 0.143629 4.48515 
-0.533312 0.147209 4.66588 
-0.446726 0.146666 4.69668 
0.456351 0.155063 4.8415 
-0.464972 0.155897 4.67711 
0.243498 0.158777 4.77098 
0.584376 0.169024 5.01276 
0.852169 0.175226 5.1273 
-0.199402 0.164012 4.7089 
-0.181932 0.164424 4.72296 
0.878007 0.175212 5.08557 
-1.12284 0.165326 4.55039 
-0.018487 0.172908 4.72012 
-0.018487 0.172908 4.72012 
0.39119 0.184561 5.04137 
0.50579 0.182626 4.94172 
0.50579 0.182626 4.94172 
0.81188 0.191803 5.11637 
0.616916 0.194011 5.11037 
0.616916 0.194011 5.11037 
-1.06359 0.183508 4.57793 
-0.77141 0.18665 4.63003 
-0.0703053 0.190097 4.7373 
0.831364 0.202789 5.08756 
0.884186 0.203032 5.12705 
-0.51031 0.190227 4.66761 
26974.5 -3409.57 157200 
-0.823838 0.193888 4.61736 
-0.823838 0.193888 4.61736 
-0.635784 0.195496 4.6579 
-0.42453 0.198764 4.68724 
-0.42453 0.198764 4.68724 
0.874975 0.219304 5.14131 
-0.779083 0.202626 4.61019 
0.20482 0.209251 4.73082 
-1.07726 0.203021 4.57037 
-0.8369 0.20742 4.62402 
-1.15138 0.206009 4.55509 
-1.06425 0.208532 4.56965 
1.28501 0.233963 5.17449 
-0.398423 0.218495 4.69453 
-0.0734131 0.219097 4.7566 
0.593531 0.240908 5.15471 
0.731602 0.245923 5.27313 
0.813435 0.239769 5.1445 
0.813435 0.239769 5.1445 
0.874472 0.238163 5.14764 
-1.45463 0.213396 4.48817 
-1.45463 0.213396 4.48817 
-1.16897 0.215948 4.54572 
-0.989047 0.220547 4.59543 
-0.989047 0.220547 4.59543 
0.793187 0.2418 5.11888 
-0.3615 0.228925 4.71889 
0.293156 0.225926 4.67545 
0.772649 0.24941 5.16203 
-1.06162 0.223247 4.57405 
-0.692999 0.228651 4.63849 
0.383573 0.218362 4.45203 
0.974477 0.250378 5.15337 
-1.02507 0.226555 4.57762 
-1.48477 0.226155 4.48117 
0.853786 0.259422 5.1473 
-0.0302794 0.241887 4.71529 
0.609217 0.266108 5.22727 
0.62116 0.263924 5.18812 
-1.08158 0.2371 4.56937 
-1.01963 0.239493 4.57962 
-0.797579 0.241913 4.61396 
-0.766419 0.241155 4.59743 
-0.684198 0.242972 4.63922 
-0.684198 0.242972 4.63922 
-0.0444762 0.247349 4.73042 
0.566895 0.278254 5.34591 
-1.06071 0.242561 4.5671 
-1.06071 0.242561 4.5671 
-1.06071 0.242561 4.5671 
0.351604 0.246021 4.66065 
0.975597 0.270656 5.13422 
-0.918014 0.245871 4.61277 
0.0887544 0.250708 4.70325 
0.361771 0.241619 4.54925 
-0.105961 0.255758 4.73685 
0.726736 0.291672 5.46862 
0.803095 0.27681 5.16437 
0.803095 0.27681 5.16437 
0.623489 0.284945 5.27001 
1.06414 0.286063 5.29945 
-1.07765 0.252024 4.55574 
-0.478967 0.258154 4.66828 
-0.478967 0.258154 4.66828 
-1.23547 0.25626 4.53976 
-1.00709 0.258234 4.58517 
0.652629 0.291956 5.22352 
0.652629 0.291956 5.22352 
0.71734 0.292681 5.22853 
-1.15808 0.257976 4.54195 
-0.575684 0.264942 4.65401 
-0.575684 0.264942 4.65401 
-0.443861 0.265026 4.67753 
0.639234 0.294005 5.23784 
0.639234 0.294005 5.23784 
0.905336 0.292235 5.17477 
0.681448 0.293346 5.09038 
0.681448 0.293346 5.09038 
0.817647 0.297597 5.16866 
-0.0294847 0.275232 4.69397 
0.614999 0.305033 5.28055 
0.614999 0.305033 5.28055 
-1.196 0.269098 4.5413 
-1.1204 0.268905 4.55545 
-1.10059 0.268641 4.56027 
0.140286 0.281464 4.79501 
0.33946 0.260653 4.42333 
0.321616 0.240115 4.04297 
0.321616 0.240115 4.04297 
0.859632 0.306409 5.18801 
-1.00362 0.273947 4.60215 
0.328754 0.238729 3.96355 
-1.15934 0.277982 4.55415 
-0.960052 0.281884 4.59187 
-0.960052 0.281884 4.59187 
-0.452484 0.286047 4.67573 
-26454.4 165674 -2.91056e+006 
-1.23181 0.281424 4.54316 
-0.875649 0.285919 4.61208 
0.344897 0.247222 4.01229 
-0.433021 0.293656 4.69658 
0.553997 0.348043 5.60687 
0.845442 0.320024 5.16624 
-1.24584 0.285843 4.53631 
-0.831425 0.293664 4.61726 
-0.371202 0.296043 4.70172 
-0.767745 0.297699 4.63092 
0.0778051 0.297954 4.66122 
0.935535 0.331359 5.14661 
-0.815553 0.301783 4.62008 
0.636342 0.349166 5.37562 
-0.754357 0.309722 4.64935 
-0.461841 0.307393 4.61343 
0.655497 0.343074 5.13378 
-0.784159 0.311979 4.63133 
-0.784159 0.311979 4.63133 
-0.374985 0.315785 4.71968 
0.172786 0.311159 4.61211 
0.148951 0.120172 1.78572 
0.221567 0.319483 4.7035 
-0.911044 0.31453 4.59775 
-0.983867 0.315804 4.56936 
-0.440259 0.323784 4.68171 
-0.847428 0.322109 4.61791 
0.247534 0.321448 4.62886 
0.295261 0.262276 3.7906 
0.537913 0.360276 5.12946 
-0.991334 0.328208 4.57688 
-0.991334 0.328208 4.57688 
-0.991334 0.328208 4.57688 
-0.689473 0.331858 4.64237 
0.610335 0.490766 6.82649 
0.724692 0.37596 5.242 
1.01326 0.38339 5.34176 
0.317404 0.307934 4.21827 
-1.02967 0.33898 4.56516 
0.283886 0.322394 4.37873 
1.02052 0.389499 5.28938 
-1.18217 0.339438 4.53272 
-0.981783 0.344648 4.58226 
-0.981783 0.344648 4.58226 
0.677232 0.399822 5.28896 
-0.708086 0.356542 4.64257 
-1.1187 0.358529 4.5596 
0.281527 0.362315 4.62463 
1.00675 0.405273 5.17699 
1.11344 0.4071 5.20249 
-0.687226 0.368313 4.64361 
-1.15511 0.366041 4.55984 
-0.497747 0.380554 4.67619 
0.286092 0.396877 4.9056 
0.50616 0.427913 5.20797 
0.740791 0.428056 5.20887 
1.10737 0.426113 5.18781 
-0.922471 0.383006 4.59887 
-1.16042 0.381806 4.55218 
0.139089 0.386464 4.65308 
-1.22993 0.385124 4.54983 
0.354254 0.383295 4.58893 
0.354254 0.383295 4.58893 
-0.608777 0.3962 4.68259 
0.837046 0.441831 5.20071 
0.330357 0.395631 4.63397 
0.416853 0.423562 4.94071 
0.867704 0.446814 5.20658 
-0.958215 0.399645 4.61418 
-0.868616 0.39922 4.61315 
0.105128 0.410045 4.71086 
0.981738 0.451314 5.22491 
1.12414 0.452805 5.20529 
-0.890186 0.404537 4.61208 
-0.635727 0.409089 4.65568 
-1.54929 0.397453 4.48774 
-0.685476 0.409159 4.62982 
-0.685476 0.409159 4.62982 
-0.469853 0.414624 4.66633 
-0.038938 0.41684 4.72144 
-0.038938 0.41684 4.72144 
0.819603 0.462859 5.23308 
0.819603 0.462859 5.23308 
-0.82416 0.411667 4.62916 
0.846409 0.459353 5.18983 
-0.924665 0.412383 4.59537 
-1.32447 0.408025 4.52464 
-1.12257 0.410547 4.55747 
-0.455817 0.420161 4.68075 
0.407468 0.435357 4.84959 
0.592759 0.472498 5.23507 
-0.75781 0.424077 4.63949 
0.794404 0.472649 5.13923 
0.844999 0.479837 5.2251 
0.985989 0.47523 5.18589 
-0.915118 0.426269 4.60729 
-1.53278 0.415412 4.46382 
-1.01397 0.426576 4.56673 
0.486748 0.475119 5.1149 
1.14317 0.48135 5.19987 
-0.673702 0.434447 4.64067 
-0.832103 0.436444 4.62275 
0.467703 0.482971 5.12428 
-0.69655 0.438731 4.6428 
0.04026 0.443747 4.70089 
0.41001 0.464443 4.90588 
0.41001 0.464443 4.90588 
-1.15837 0.434322 4.5454 
-0.4554 0.444424 4.66954 
-0.4554 0.444424 4.66954 
-0.438914 0.446539 4.68003 
1.10153 0.493676 5.18781 
-1.52968 0.429235 4.4743 
-1.17727 0.437683 4.56517 
-0.472125 0.449458 4.66664 
0.748401 0.504508 5.22124 
-1.23575 0.457015 4.89631 
-1.14551 0.444297 4.54512 
-0.925413 0.449631 4.60602 
-0.835844 0.449733 4.61886 
-0.00300304 0.454073 4.67741 
0.720175 0.502865 5.13299 
0.898134 0.511209 5.23327 
-0.695035 0.455632 4.63186 
-0.663376 0.459647 4.64035 
-1.1727 0.453324 4.54115 
1.28321 0.52244 5.24093 
-0.882106 0.459472 4.59041 
1.24298 0.520167 5.19037 
-1.36091 0.455448 4.51 
-1.15407 0.458022 4.54604 
-1.08646 0.46027 4.56756 
-1.32028 0.458354 4.52619 
0.479888 0.50911 5.03309 
0.571811 0.537208 5.31567 
0.807914 0.535281 5.3169 
0.843896 0.523908 5.19666 
-0.632813 0.4773 4.65206 
0.919909 0.542715 5.26897 
0.726034 0.537383 5.1931 
0.736722 0.535572 5.1606 
0.514791 0.526526 5.06931 
-1.20225 0.475798 4.54646 
0.346718 0.498179 4.77645 
0.346718 0.498179 4.77645 
-1.00684 0.483123 4.57848 
0.809268 0.554051 5.25552 
-1.18869 0.484254 4.54417 
-1.18869 0.484254 4.54417 
0.609183 0.533878 5.00182 
-1.37402 0.483653 4.50654 
0.880521 0.554419 5.18194 
1.05888 0.558273 5.19592 
1.05888 0.558273 5.19592 
-0.860339 0.496177 4.6002 
0.354674 0.526006 4.83284 
0.354674 0.526006 4.83284 
0.270692 0.502893 4.60599 
0.498394 0.558793 5.10694 
1.4755 0.577665 5.26755 
0.0784817 0.515016 4.67124 
0.458247 0.537228 4.88019 
0.595004 0.558975 5.04464 
-1.25294 0.516345 4.68536 
1.09287 0.56508 5.08216 
-0.734409 0.518199 4.62649 
0.808638 0.580465 5.20179 
1574.1 893.798 8720.22 
0.731584 0.579952 5.15066 
0.731584 0.579952 5.15066 
0.179782 0.539908 4.78695 
0.335969 0.530383 4.71408 
0.889961 0.5864 5.19759 
0.139636 0.533746 4.69087 
0.31077 0.5427 4.77192 
0.341393 0.522433 4.60492 
0.575153 0.584309 5.11157 
0.124551 0.540263 4.7179 
0.370435 0.551593 4.81018 
0.370435 0.551593 4.81018 
0.593564 0.57736 5.01271 
1.11896 0.599518 5.20368 
-1.46389 0.520282 4.4979 
-0.763814 0.533952 4.62858 
1.53545 0.608981 5.27755 
0.445935 0.574471 4.95316 
0.445935 0.574471 4.95316 
0.691415 0.634595 5.46052 
1.25281 0.516274 4.38369 
-1.28558 0.529854 4.52136 
-0.905391 0.540517 4.60983 
0.287578 0.557868 4.7577 
0.752432 0.6041 5.13371 
-1.48398 0.529402 4.4839 
-1.19234 0.537842 4.52943 
-0.110826 0.557004 4.7363 
0.249617 0.558565 4.75195 
1.56442 0.62337 5.29225 
-1.18239 0.539403 4.54228 
1.2723 0.52657 4.38747 
-1.28422 0.545489 4.53157 
-1.23825 0.546729 4.52982 
0.457801 0.593486 4.94979 
0.838215 0.610041 5.06874 
0.838215 0.610041 5.06874 
2.45919 0.9636 8.18958 
0.183327 0.568776 4.70728 
0.823765 0.627821 5.17422 
1.03989 0.630748 5.20317 
1.03989 0.630748 5.20317 
0.882987 0.628929 5.15681 
1.21729 0.64069 5.26584 
284.824 420.852 3554.49 
-1.28105 0.560158 4.52327 
-1.25949 0.562169 4.545 
-1.23605 0.561688 4.53965 
-0.60785 0.574368 4.64983 
0.327443 0.592898 4.80697 
-1.18366 0.56352 4.54508 
0.597113 0.629606 5.0834 
-0.50712 0.580666 4.66369 
0.420585 0.612391 4.93368 
-1.22384 0.569241 4.54669 
-0.632746 0.579146 4.63084 
0.0501848 0.589429 4.70979 
0.919773 0.655178 5.21515 
1.06144 0.655343 5.21271 
0.498216 0.619816 4.88239 
-1.32386 0.576641 4.51859 
-0.8972 0.587456 4.6031 
-1.30713 0.579705 4.52229 
-0.715001 0.592557 4.63099 
-0.715001 0.592557 4.63099 
-0.547845 0.595994 4.66364 
-0.547845 0.595994 4.66364 
0.0894055 0.598417 4.69331 
0.215088 0.601704 4.72308 
-0.521029 0.60264 4.68741 
0.338753 0.620758 4.81677 
0.500971 0.647755 5.00844 
-0.780675 0.602307 4.63655 
0.0468782 0.609561 4.70039 
0.901752 0.676616 5.19146 
1.0628 0.678136 5.19831 
-1.1531 0.598949 4.5462 
0.324984 0.635535 4.82205 
0.760071 0.675024 5.11528 
1.24542 0.690963 5.24039 
1.26047 0.6888 5.22952 
-1.39299 0.595661 4.49422 
1.31706 0.693243 5.24008 
-0.556046 0.619242 4.66278 
-0.48524 0.619745 4.65544 
0.230755 0.63448 4.77077 
1.21933 0.699194 5.25005 
-1.54216 0.623141 4.68193 
1.1411 0.705356 5.23543 
1.28699 0.70876 5.26183 
1.33422 0.704487 5.23101 
-1.40789 0.610541 4.50493 
-0.509212 0.631111 4.67646 
-1.50861 0.610378 4.49033 
-1.50861 0.610378 4.49033 
-0.779427 0.626865 4.61827 
-1.24506 0.619682 4.53738 
0.366335 0.660419 4.84885 
0.579174 0.666529 4.88556 
0.855834 0.701319 5.14427 
1.0645 0.721353 5.29149 
1.33636 0.721138 5.29782 
-1.49216 0.615125 4.4924 
0.44854 0.67044 4.87604 
-1.05723 0.633831 4.57468 
1.12717 0.780575 5.64874 
-1.04239 0.638565 4.57609 
0.846317 0.712075 5.09022 
1.27329 0.730548 5.24372 
-1.25605 0.636515 4.5471 
1.0125 0.730902 5.21132 
-0.790797 0.651683 4.62104 
0.0489232 0.662692 4.72776 
1.37959 0.734537 5.21327 
1.13876 0.739414 5.22907 
1.30857 0.743147 5.26573 
-1.11758 0.646426 4.56 
-0.418503 0.667289 4.6745 
0.405787 0.696189 4.9141 
-0.964383 0.654401 4.59531 
-0.964383 0.654401 4.59531 
-0.758254 0.660311 4.63474 
0.38877 0.700514 4.91187 
-0.988956 0.659232 4.58284 
0.752409 0.734291 5.09426 
-1.08041 0.661991 4.56954 
-1.08041 0.661991 4.56954 
1.06336 0.754612 5.22061 
1.45318 0.775555 5.37672 
0.300724 0.698593 4.82056 
0.458275 0.726277 4.98399 
0.985882 0.750388 5.13393 
1.10136 0.816934 5.59012 
0.225224 0.702357 4.78576 
0.428242 0.716983 4.87353 
0.565497 0.738194 5.00663 
-1.07662 0.677623 4.56839 
-1.0073 0.678341 4.58016 
-0.409689 0.684953 4.63078 
0.0632215 0.710968 4.75641 
0.0632215 0.710968 4.75641 
-1.01822 0.687065 4.57517 
-0.624625 0.699908 4.66336 
0.0823694 0.710021 4.7426 
-0.42829 0.704778 4.68276 
0.36786 0.727271 4.8078 
0.800664 0.784471 5.14668 
0.577283 0.763051 4.99637 
0.893457 0.787532 5.14216 
1.14347 0.625678 4.04731 
-0.708323 0.714665 4.65234 
-0.509078 0.714184 4.65554 
0.305838 0.737089 4.81781 
0.865985 0.790482 5.14947 
1.18307 0.803175 5.23627 
-0.487585 0.718249 4.67134 
0.956901 0.808682 5.16611 
-0.662987 0.716268 4.58081 
0.395502 0.77658 4.95078 
-0.631977 0.727018 4.63202 
0.69227 0.79542 5.04845 
0.0671022 0.750063 4.73673 
0.220586 0.75546 4.78204 
0.461917 0.798323 5.0287 
-0.761608 0.731952 4.59941 
0.583142 0.794358 4.98929 
0.809195 0.810622 5.08928 
0.286839 0.757634 4.76047 
-0.616394 0.74477 4.64346 
0.633467 0.812612 5.06869 
0.712739 0.813146 5.06878 
0.759177 0.818904 5.10307 
0.759177 0.818904 5.10307 
-1.10836 0.733353 4.56115 
-0.602001 0.749616 4.6667 
0.208923 1.12359 7.11447 
0.686886 0.809319 5.04171 
1.27732 0.84845 5.25949 
1.27732 0.84845 5.25949 
1.33041 0.846736 5.2415 
0.0543166 0.759451 4.703 
0.931886 0.835526 5.14345 
0.931886 0.835526 5.14345 
1.57818 0.86135 5.30848 
1.31525 0.85521 5.24085 
-1.09858 0.748292 4.57754 
-0.828244 0.748717 4.57489 
-0.468962 0.749903 4.58594 
0.355521 0.804685 4.92794 
0.871204 0.844033 5.13468 
0.871204 0.844033 5.13468 
1.34882 0.861094 5.23653 
0.84742 0.851842 5.14521 
-0.813553 0.768113 4.63697 
0.825072 0.853313 5.11519 
1.83458 1.0018 5.98358 
-1.07598 0.770873 4.56723 
0.566022 0.842482 4.99154 
0.690588 0.854792 5.06305 
0.954064 0.870268 5.15718 
0.194763 0.809902 4.7973 
1.1469 0.883489 5.23306 
0.34102 0.828058 4.89107 
0.839952 0.87218 5.11745 
2.24135 1.22201 7.23375 
-0.809286 0.79101 4.61599 
-0.466648 0.797489 4.64797 
0.536239 0.852102 4.97893 
0.549352 0.838964 4.89605 
1.06021 0.89419 5.18847 
0.950794 0.619959 3.54449 
-0.774944 0.802473 4.61945 
1.25204 0.909142 5.23653 
-0.764412 0.768344 4.38369 
0.528257 0.865502 4.95718 
0.674603 0.886601 5.07103 
0.931579 0.905424 5.16068 
-0.472471 0.822195 4.66595 
1.01691 0.911981 5.1716 
1.01691 0.911981 5.1716 
1.13345 0.735862 4.15235 
1.23739 0.930774 5.25402 
-0.820514 0.817882 4.61261 
-1.3115 0.809018 4.50889 
0.41315 0.884229 4.94562 
1.06305 0.931853 5.19281 
1.20403 0.934486 5.21546 
1.20403 0.934486 5.21546 
-0.469852 0.840517 4.68339 
-0.831046 0.827884 4.59747 
-0.540595 0.840906 4.64523 
1.19437 0.932263 5.13075 
0.944354 0.629699 3.43405 
-1.31575 0.831534 4.54421 
-0.470821 0.854469 4.67733 
6.15569 3.35605 18.6041 
-1.01417 0.842309 4.57016 
-1.01417 0.842309 4.57016 
0.387045 0.894006 4.8668 
0.387045 0.894006 4.8668 
0.727408 1.0513 5.69609 
1.47396 0.97155 5.27863 
-1.07393 0.84273 4.56323 
0.891753 0.953693 5.12749 
1.13408 0.968217 5.21042 
-0.0540995 0.881042 4.74534 
0.285759 0.903017 4.85011 
-0.30058 0.879622 4.70902 
-0.30058 0.879622 4.70902 
0.645469 0.941167 5.03795 
-0.571864 0.853292 4.54111 
0.210796 0.894645 4.78881 
0.393861 0.924721 4.9397 
-0.874258 0.868216 4.61757 
-0.291116 0.892537 4.74258 
0.522772 0.946411 5.02701 
-1.01685 0.870186 4.57976 
-0.552133 0.886113 4.6566 
0.147397 0.907998 4.78649 
0.764616 0.961227 5.0571 
209.173 431.073 2283.67 
1.33364 1.00101 5.23283 
-1.41504 0.859089 4.492 
-0.827467 0.859872 4.46595 
0.3341 0.938516 4.89834 
0.914662 0.982518 5.11098 
-1.0111 0.885376 4.5818 
-0.570502 0.898848 4.66062 
0.250641 0.932573 4.83215 
0.353148 0.945061 4.90677 
-0.796586 0.891174 4.59851 
0.30039 0.935529 4.84084 
0.30039 0.935529 4.84084 
0.224269 0.935479 4.82148 
0.323394 0.941152 4.84515 
0.508485 0.965656 4.96712 
-0.638136 0.911173 4.66767 
-0.530442 0.911473 4.67291 
-0.821618 0.901773 4.60568 
-0.585812 0.911979 4.66072 
0.738039 0.994028 5.07341 
0.814062 1.00004 5.10711 
-1.06043 0.897725 4.56827 
-0.906152 0.933815 4.77374 
-1.5185 0.884087 4.48331 
0.720779 1.00171 5.08214 
-1.4255 0.865007 4.36776 
0.388939 0.96461 4.89468 
0.721125 0.899169 4.56419 
1.36547 1.04627 5.29444 
-1.33512 0.897492 4.52199 
0.749053 0.999513 5.04692 
-1.18854 0.903076 4.53831 
-1.40129 0.90908 4.52862 
-1.40129 0.90908 4.52862 
-1.06335 0.914197 4.56523 
0.845498 1.12672 5.60956 
-1.14569 0.916637 4.5734 
-0.899153 0.931222 4.62215 
0.865189 1.03538 5.11056 
-0.497528 0.948684 4.68071 
-0.497528 0.948684 4.68071 
-0.966363 0.936428 4.59011 
0.922158 1.04712 5.12114 
-1.14638 0.950992 4.66895 
-0.571845 0.953153 4.66137 
-1.0922 0.938481 4.56629 
0.381128 1.00348 4.8868 
0.381128 1.00348 4.8868 
6368.48 3476.85 18663.1 
-0.976551 0.948334 4.59148 
0.464435 1.0308 4.99857 
0.937042 1.05264 5.08651 
-0.918711 0.950708 4.60069 
0.947229 1.04981 5.05735 
1.27003 1.08768 5.22991 
-0.9013 0.953665 4.58352 
0.255128 1.00683 4.83378 
-0.578044 0.978049 4.67255 
-0.503276 0.979517 4.68067 
0.89203 1.07157 5.11217 
-1.2695 1.03225 5.00209 
-0.936808 0.969619 4.59886 
-0.593382 0.981789 4.66627 
2.77808 1.81958 8.66301 
1.46937 1.11388 5.26345 
0.316707 1.03217 4.86461 
0.979178 1.13279 5.32752 
-1.48805 0.959104 4.4839 
-1.48805 0.959104 4.4839 
-0.928778 0.963108 4.4988 
0.750301 1.08499 5.0762 
0.762172 1.07059 5.01279 
0.862522 1.08473 5.07652 
2.71003 1.80452 8.47549 
831.703 539.463 2583.42 
-0.933695 0.984438 4.59347 
0.844235 1.08794 5.08284 
-1.01294 0.981847 4.57292 
-0.554305 0.999589 4.6582 
-0.554305 0.999589 4.6582 
1.19371 1.42954 6.60525 
1.28966 1.12847 5.23779 
0.872792 1.08952 5.04976 
1.22229 1.12767 5.23045 
-1.54619 0.995679 4.6158 
-0.598226 1.00384 4.64634 
0.359714 1.05683 4.88904 
-1.06601 1.02854 4.74939 
-0.588717 1.01138 4.671 
0.27397 1.05275 4.85966 
-0.565234 1.01288 4.66122 
-1.2295 0.99825 4.54887 
-1.03719 1.00583 4.58642 
0.261732 1.06271 4.85929 
3.66267 2.44025 11.1979 
-0.185814 1.03584 4.71482 
-0.593405 1.03136 4.67198 
-2342.63 1515.4 8435.48 
1.17978 1.46845 6.57865 
1.13351 1.44433 6.45484 
1.34328 1.51687 6.7444 
0.564482 1.29203 5.76254 
-0.749378 1.25345 5.70724 
3.93178 2.97625 13.2422 
2.71095 2.05999 8.97989 
2752.82 1804.87 7950.28 
1770.94 1364.35 5841.46 
6090.49 3995.13 17718.2 
20027.1 18745.2 124659 
-100286 -78782.4 1.11461e+006 
-1.2813 -1.80859 7.48881 
-1.26851 -1.81856 7.5617 
-1.24349 -1.64965 7.11398 
-1.38432 -0.937626 4.44453 
-0.680113 -0.962164 4.57778 
-0.973656 -0.939775 4.52611 
-0.723218 -0.943416 4.56975 
-0.723218 -0.943416 4.56975 
-0.655311 -0.942395 4.57373 
0.39757 -0.959534 4.75775 
-0.90298 -0.912983 4.54397 
-0.918339 -0.90709 4.54075 
3.7706 -2.34213 11.1667 
-1.04334 -0.896705 4.5137 
-0.987172 -0.893202 4.52197 
3.80935 -2.396 11.5941 
-1.0601 -0.885126 4.51321 
-0.841641 -0.885478 4.56296 
-1.08649 -0.870355 4.50832 
-1.08649 -0.870355 4.50832 
-1.08649 -0.870355 4.50832 
-0.618217 -0.88487 4.59721 
-1.04619 -0.862704 4.51852 
-0.635303 -0.871588 4.60236 
-0.635303 -0.871588 4.60236 
-0.882227 -0.840262 4.55697 
1.49752 -0.916884 4.99199 
1.26464 -0.89387 4.95458 
1.46053 -0.904525 5.01477 
-0.968072 -0.8115 4.54151 
-0.856055 -0.809886 4.56174 
0.408281 -0.843791 4.76246 
-0.898841 -0.802093 4.54596 
-1.47982 -0.777224 4.43324 
-0.750032 -0.802163 4.57854 
-0.855652 -0.792299 4.57079 
-1.07736 -0.779355 4.51133 
-1.49114 -0.761818 4.42398 
1.32487 -0.836067 4.97588 
-0.758843 -0.762392 4.58374 
-0.758843 -0.762392 4.58374 
-1.10982 -0.741255 4.51502 
-1.06615 -0.743064 4.5305 
-0.746259 -0.753365 4.58721 
0.0417152 -0.771676 4.71117 
1.12789 -0.796982 4.94749 
1.01851 -0.786083 4.92373 
3.07743 -2.323 13.7567 
-0.765759 -0.725032 4.58892 
-0.765759 -0.725032 4.58892 
1.10811 -0.777474 4.9424 
0.383414 -0.74411 4.76067 
0.383414 -0.74411 4.76067 
-0.902022 -0.706737 4.55578 
-0.842225 -0.70877 4.5714 
-0.842225 -0.70877 4.5714 
1.01657 -0.744562 4.92604 
-0.964622 -0.685335 4.54832 
1.08999 -0.734527 4.92886 
0.208422 -0.698601 4.734 
0.256124 -0.701714 4.75221 
0.953199 -0.725033 4.91974 
3.84888 -3.19463 20.5019 
0.0529788 -0.68349 4.72291 
1.0038 -0.703552 4.90417 
-0.0648297 -0.674799 4.71567 
-1.03182 -0.644352 4.5446 
-0.965243 -0.642394 4.5448 
-0.965243 -0.642394 4.5448 
-0.965243 -0.642394 4.5448 
-0.860882 -0.645956 4.57077 
-0.860882 -0.645956 4.57077 
-0.790022 -0.646742 4.57559 
-0.375032 -0.654382 4.66207 
0.961802 -0.694128 4.92203 
0.0521001 -0.662108 4.71928 
-0.44794 -0.649767 4.6451 
0.745899 -0.680343 4.87741 
-1.03716 -0.622026 4.52951 
-0.382322 -0.630918 4.66159 
-0.427682 -0.627236 4.65067 
0.802695 -0.65621 4.87727 
-0.781996 -0.614688 4.58872 
-0.180512 -0.629923 4.69537 
-0.0277815 -0.625287 4.70525 
-0.126715 -0.619485 4.7013 
-0.126715 -0.619485 4.7013 
-0.888199 -0.596014 4.57216 
-0.637118 -0.601027 4.61939 
-0.511065 -0.599452 4.60885 
0.405065 -0.623743 4.78926 
-1.18017 -0.585256 4.50715 
0.725365 -0.626719 4.85483 
-1.39672 -0.575353 4.47309 
-1.39672 -0.575353 4.47309 
-0.731307 -0.589364 4.58618 
-0.90215 -0.584048 4.57817 
-1.40677 -0.567874 4.45911 
0.662405 -0.604711 4.8377 
0.722354 -0.608665 4.86941 
-0.340083 -0.583907 4.6785 
-0.0980677 -0.580323 4.66275 
-0.823352 -0.565891 4.58894 
-0.776626 -0.566015 4.59687 
-0.622528 -0.569289 4.6161 
-1.36099 -0.545587 4.48652 
0.604184 -0.58321 4.82273 
-0.157653 -0.565202 4.70133 
-0.565707 -0.553966 4.6374 
0.574122 -0.477429 4.07974 
-1.0886 -0.53914 4.52974 
0.553626 -0.56452 4.80813 
-0.22283 -0.548718 4.68996 
0.512049 -0.549464 4.8048 
-0.679439 -0.526079 4.61196 
0.0202023 -0.538417 4.72836 
0.182184 -0.538563 4.72151 
0.290981 -0.547575 4.8038 
-1.34797 -0.509094 4.48231 
-0.537156 -0.525408 4.62924 
-1.01825 -0.510361 4.55035 
-0.44871 -0.51964 4.64536 
0.472543 -0.535555 4.80176 
-0.730891 -0.512628 4.61238 
0.403688 -0.527223 4.78926 
-0.585872 -0.510569 4.65412 
-0.963956 -0.496568 4.56244 
0.475319 -0.515876 4.75753 
-0.480379 -0.495273 4.65598 
0.0191826 -0.502522 4.72743 
0.0191826 -0.502522 4.72743 
0.243487 -0.497802 4.71691 
-0.539434 -0.487211 4.63925 
0.0348247 -0.49536 4.73492 
-1.28151 -0.46433 4.49737 
-1.39039 -0.461385 4.47918 
-0.660053 -0.477765 4.63032 
-0.757077 -0.463193 4.60716 
-0.563106 -0.467357 4.6366 
-1.31565 -0.446444 4.48496 
-0.580318 -0.458999 4.63166 
-0.580318 -0.458999 4.63166 
-1.46006 -0.433857 4.46396 
-0.0258437 -0.46066 4.73414 
-0.0258437 -0.46066 4.73414 
-0.596054 -0.44918 4.63639 
-0.540199 -0.448436 4.64924 
-0.540199 -0.448436 4.64924 
-1.20699 -0.426573 4.49206 
-1.07326 -0.422381 4.546 
-1.01306 -0.420261 4.56374 
-0.418567 -0.427713 4.66899 
-0.418567 -0.427713 4.66899 
1.27077 -0.463323 5.03811 
-0.567338 -0.425361 4.64628 
0.438199 -0.434242 4.79796 
0.182081 -0.428126 4.74826 
-1.38357 -0.398245 4.4779 
-1.33749 -0.397605 4.48028 
-0.53988 -0.411631 4.64362 
-0.390988 -0.412338 4.67497 
-0.8861 -0.404346 4.58843 
-0.476162 -0.408329 4.66241 
-0.476162 -0.408329 4.66241 
-1.08277 -0.390244 4.53928 
0.146467 -0.408889 4.75133 
-1.35142 -0.38507 4.51403 
0.398403 -0.397503 4.7687 
-1.14791 -0.369912 4.51255 
-0.590474 -0.377634 4.58134 
-0.901167 -0.375669 4.58443 
-0.111962 -0.384143 4.73592 
-1.02371 -0.368528 4.56194 
-1.26573 -0.358238 4.50475 
-0.340533 -0.366995 4.68375 
-0.445022 -0.362938 4.66881 
-0.213909 -0.363391 4.70267 
-0.213909 -0.363391 4.70267 
0.399662 -0.369467 4.78468 
1.3495 -0.374956 5.05929 
-1.14104 -0.332463 4.52441 
-0.148691 -0.348286 4.7247 
0.447243 -0.340292 4.71922 
0.188629 -0.340917 4.75547 
0.397938 -0.333526 4.76868 
-0.0659365 -0.322301 4.72569 
0.384255 -0.326064 4.80681 
-1.15658 -0.307337 4.53081 
1.36055 -0.344295 5.06487 
-0.324962 -0.312973 4.6937 
0.843385 -0.32712 4.91691 
-0.74815 -0.300338 4.61336 
-0.0354725 -0.307837 4.73941 
-0.0562537 -0.304152 4.72887 
-0.170835 -0.299198 4.72798 
-0.100607 -0.293631 4.72077 
-1.49719 -0.276186 4.45915 
-0.557222 -0.283414 4.65353 
-0.0369475 -0.284167 4.7437 
-0.0369475 -0.284167 4.7437 
0.0843453 -0.273005 4.74805 
0.395746 -0.271576 4.7583 
-0.456934 -0.266406 4.68545 
-0.254084 -0.260538 4.66136 
0.0177704 -0.266635 4.75066 
0.0448949 -0.266799 4.75837 
-0.428504 -0.261576 4.67833 
-0.58843 -0.250315 4.65032 
0.287983 -0.256585 4.77915 
0.287983 -0.256585 4.77915 
-0.207882 -0.24327 4.71996 
-1.49906 -0.228935 4.46296 
-1.49906 -0.228935 4.46296 
0.767404 -0.249987 4.91445 
0.767404 -0.249987 4.91445 
0.398573 -0.240016 4.79546 
0.895475 -0.249386 4.95377 
0.895475 -0.249386 4.95377 
-0.326755 -0.227023 4.71738 
0.3039 -0.230595 4.77545 
0.784691 -0.230638 4.92552 
0.846351 -0.229541 4.94385 
0.846351 -0.229541 4.94385 
0.910179 -0.221188 4.94683 
0.332331 -0.209838 4.78539 
0.379254 -0.1939 4.74339 
0.722656 -0.198389 4.87907 
-0.593106 -0.180453 4.65797 
-0.461915 -0.183373 4.68916 
0.69625 -0.0874638 3.32015 
0.281165 -0.175362 4.82851 
-0.286019 -0.16595 4.68896 
1.27242 -0.18211 5.07208 
-0.0347892 -0.157501 4.7382 
1.16376 -0.170053 5.02016 
1.24552 -0.167095 5.06773 
-0.592994 -0.148531 4.65679 
0.401077 -0.152581 4.82683 
0.354573 -0.14824 4.77703 
-0.222941 -0.138733 4.68382 
-0.891245 -0.12991 4.56911 
0.381837 -0.131674 4.77227 
0.403678 -0.123131 4.85466 
0.847124 -0.126698 4.96071 
0.847124 -0.126698 4.96071 
0.77457 -0.116878 4.9418 
0.920587 -0.116585 5.01191 
0.920587 -0.116585 5.01191 
0.724242 -0.110021 4.88834 
-0.441426 -0.102865 4.67378 
-0.280056 -0.101285 4.7287 
0.835441 -0.108409 4.96875 
0.168015 -0.0987218 4.76917 
-0.290964 -0.0881643 4.72039 
-0.249823 -0.0806264 4.72059 
0.061096 -0.0815838 4.7527 
-0.593154 -0.0768259 4.65727 
-0.593154 -0.0768259 4.65727 
-0.377759 -0.0783298 4.72903 
-0.390903 -0.0747162 4.65218 
-16201.2 12622.2 -189758 
-0.314755 -0.0740985 4.7091 
-0.0266605 -0.0749967 4.75716 
-0.095904 -0.059152 4.74887 
0.104353 -0.0618346 4.76887 
0.436697 -0.0615968 4.8114 
0.436697 -0.0615968 4.8114 
0.0210665 -0.0587217 4.73916 
-1.44383 -0.0404154 4.45747 
1.1263 -0.0544098 5.15945 
0.186291 -0.0426293 4.7603 
1.13654 -0.0436861 5.06302 
-1.49567 -0.0342378 4.46852 
-1.49567 -0.0342378 4.46852 
-0.421734 -0.0327595 4.69374 
-0.196609 -0.0329645 4.73139 
-0.00467985 -0.0332642 4.74561 
1.28586 -0.0395325 5.13511 
-0.817997 -0.0285011 4.61341 
-0.285917 -0.0288263 4.72074 
-0.307755 -0.0262704 4.67798 
0.0800032 -0.0231991 4.79084 
0.0800032 -0.0231991 4.79084 
0.0839683 -0.0177381 4.41096 
0.0839683 -0.0177381 4.41096 
0.401557 -0.0223816 4.85847 
0.779616 -0.0194147 4.9841 
-0.59216 -0.0148997 4.65214 
-0.59216 -0.0148997 4.65214 
0.0161407 -0.0154295 4.73643 
-0.238189 -0.0131385 4.7082 
-0.181265 -0.0132453 4.7287 
0.731147 -0.0163923 4.96195 
-0.0297628 -0.00157279 4.7495 
0.0403059 -0.000808437 4.78519 
-0.349364 0.00322741 4.70351 
0.160293 0.00212082 4.79598 
-0.382304 0.00598105 4.70566 
31300.7 24150.4 -3.29236e+006 
0.333286 0.0116833 4.76769 
-0.641252 0.0177263 4.67383 
-0.593742 0.0189496 4.65736 
-0.22893 0.0274859 4.6784 
-0.0273824 0.0281235 4.77175 
0.374892 0.0286666 4.77181 
-0.84627 0.0356013 4.5996 
-0.114098 0.0484468 4.73132 
1.02567 0.0545346 5.06013 
0.796067 0.0574923 5.02601 
0.796067 0.0574923 5.02601 
0.796067 0.0574923 5.02601 
-0.0281061 0.0589232 4.67949 
-0.502967 0.0656582 4.67672 
-0.563279 0.0740732 4.67065 
0.859453 0.0799302 5.05691 
0.859453 0.0799302 5.05691 
-0.521473 0.0838034 4.67405 
-0.129445 0.0896367 4.71592 
-0.0253715 0.0911472 4.76359 
1.28507 0.10521 5.15417 
0.62348 0.108013 5.15978 
0.927763 0.103764 5.08429 
0.927763 0.103764 5.08429 
1.25171 0.115806 5.13241 
-0.491475 0.10976 4.67702 
0.0353783 0.11245 4.7641 
0.178892 0.116234 4.53552 
-1.4941 0.125226 4.47723 
-1.4941 0.125226 4.47723 
0.0262399 0.134053 4.79774 
-1.50589 0.136234 4.46546 
0.6913 0.145375 4.90318 
0.803022 0.15594 5.07827 
0.803022 0.15594 5.07827 
0.803022 0.15594 5.07827 
-0.385902 0.150685 4.67366 
-0.385902 0.150685 4.67366 
-0.32953 0.15153 4.70273 
-0.32953 0.15153 4.70273 
-0.32953 0.15153 4.70273 
0.730544 0.161752 4.96986 
-0.150975 0.159117 4.74013 
-0.0544509 0.157418 4.73914 
-0.0544509 0.157418 4.73914 
0.604099 0.169445 5.02957 
0.604099 0.169445 5.02957 
-0.119167 0.166221 4.731 
0.195594 0.165047 4.69979 
0.793688 0.175577 5.09203 
-0.251961 0.168016 4.74647 
0.865038 0.182505 5.10462 
0.865038 0.182505 5.10462 
-0.954233 0.169025 4.59988 
-0.915416 0.170418 4.61133 
-0.306461 0.172965 4.71919 
-1.14901 0.168998 4.54952 
-0.33769 0.181548 4.7149 
0.633762 0.195493 5.0969 
-1.13555 0.179166 4.55769 
-0.366626 0.184968 4.72448 
-0.0518388 0.188112 4.73862 
-0.0518388 0.188112 4.73862 
1.55978 0.32713 9.4387 
0.621574 0.216029 5.10552 
0.621574 0.216029 5.10552 
0.935471 0.21666 5.13912 
-0.954564 0.200041 4.58902 
-0.371287 0.21 4.69387 
0.388207 0.218394 4.86727 
-1.47022 0.208025 4.48503 
0.184438 0.215527 4.65452 
-0.578783 0.228778 4.66908 
1.29104 0.252014 5.19071 
-0.787199 0.234198 4.63081 
-0.787199 0.234198 4.63081 
-0.464917 0.238033 4.67911 
0.811646 0.258956 5.15182 
0.736663 0.263551 5.18389 
0.736663 0.263551 5.18389 
0.278179 0.237232 4.55573 
-1.15501 0.24067 4.548 
0.156927 0.251602 4.65106 
0.156927 0.251602 4.65106 
0.185645 0.257125 4.70134 
-0.379022 0.261026 4.68812 
-0.0867595 0.265898 4.73498 
1.01104 0.290764 5.15613 
-1.18652 0.25935 4.55355 
-1.0224 0.261346 4.57354 
-0.339734 0.268249 4.6761 
-1.07094 0.271989 4.56945 
-1.21738 0.274687 4.54232 
0.679297 0.310593 5.40786 
-0.940713 0.278577 4.5983 
-0.628821 0.288657 4.8063 
0.714775 0.330724 5.25072 
1.08872 0.329775 5.18865 
-1.1909 0.290748 4.54979 
-0.904298 0.296285 4.60349 
-0.961662 0.30158 4.59171 
-0.961662 0.30158 4.59171 
-1.15387 0.3009 4.54835 
0.826666 0.343628 5.19215 
1.12495 0.341908 5.20731 
-1.20477 0.306425 4.54036 
0.95297 0.357551 5.27324 
11.398 3.14868 51.7608 
-1.00538 0.314081 4.58728 
-0.587159 0.343151 4.66347 
-0.587159 0.343151 4.66347 
-0.520615 0.34124 4.66284 
-1.20511 0.336352 4.54548 
0.870833 0.389867 5.25915 
-0.462025 0.352299 4.67569 
-0.783281 0.350537 4.60845 
1.03515 0.400565 5.22853 
1.29943 0.400078 5.23676 
1.29943 0.400078 5.23676 
-0.766256 0.366859 4.62716 
-0.935177 0.36685 4.60284 
1.26532 0.407286 5.15255 
-1.23643 0.36392 4.52999 
1.02045 0.417243 5.15179 
-1.02789 0.375091 4.58395 
-0.646289 0.377965 4.62936 
-0.809795 0.384655 4.62933 
-0.410573 0.398332 4.68579 
0.599788 0.514587 6.05599 
1.23352 0.478248 5.64552 
-0.799656 0.403158 4.67634 
-0.621763 0.401748 4.65768 
1.07367 0.44828 5.21406 
0.308634 0.412489 4.65768 
-0.942719 0.415621 4.59534 
0.0905527 0.423693 4.72839 
-0.772605 0.422533 4.62501 
-1.13139 0.422243 4.54932 
-1.19552 0.424228 4.54117 
-1.19552 0.424228 4.54117 
-1.19552 0.424228 4.54117 
0.0581087 0.439802 4.69072 
0.0581087 0.439802 4.69072 
-0.737495 0.439599 4.63485 
-0.737495 0.439599 4.63485 
-1.04176 0.436928 4.57108 
-0.906403 0.446317 4.58207 
0.872832 0.504098 5.18443 
-1.35277 0.443883 4.52125 
-0.953441 0.448917 4.59106 
-1.39473 0.446478 4.50045 
0.0247447 0.469021 4.74021 
0.511114 0.50696 5.08129 
1.05911 0.518711 5.2184 
1.04027 0.522121 5.23909 
-1.10313 0.466787 4.56711 
-0.996679 0.470592 4.58468 
1.04053 0.531458 5.19116 
1.04053 0.531458 5.19116 
-1.17765 0.472734 4.54449 
-1.23234 0.481902 4.55497 
0.183709 0.491877 4.65363 
-1.41868 0.480086 4.50187 
1.45791 0.565596 5.28785 
-0.591411 0.501111 4.67394 
-0.917739 0.498109 4.60113 
-0.44794 0.508365 4.68525 
-1.50036 0.493035 4.48938 
-1.06537 0.503186 4.57911 
-0.704052 0.511913 4.63921 
-1.17556 0.502192 4.54463 
0.0938482 0.524691 4.72138 
-1.43795 0.502519 4.48575 
-0.425009 0.523915 4.67604 
-0.425009 0.523915 4.67604 
1.40935 0.587772 5.26264 
0.592566 0.584158 5.12941 
0.160518 0.143195 1.32022 
0.849574 0.586668 5.1945 
1.43984 0.580986 5.14978 
-1.35683 0.512556 4.51554 
-0.978615 0.522523 4.59345 
-0.94447 0.527504 4.58831 
0.403065 0.579509 4.94034 
-0.753133 0.549451 4.62726 
0.49139 0.605148 5.10184 
0.229062 0.57787 4.873 
-1.32029 0.541399 4.52095 
-1.4951 0.542172 4.48252 
0.553253 0.616468 5.06977 
1.5749 0.646134 5.32304 
1.19031 0.645693 5.23928 
-1.51927 0.5601 4.48188 
-1.12838 0.568015 4.5606 
-0.441518 0.584818 4.69367 
0.445514 0.62468 4.92497 
-0.60205 0.59322 4.65167 
0.197826 0.619104 4.76218 
-0.450621 0.610762 4.66408 
-0.5072 0.613621 4.66772 
-0.5072 0.613621 4.66772 
0.4196 0.646752 4.9094 
0.924809 0.685502 5.20762 
-1.3682 0.609284 4.52539 
0.164374 0.651376 4.85862 
0.130006 0.646007 4.77382 
0.791785 0.702254 5.15356 
-1.1192 0.624807 4.57028 
0.0548863 0.645882 4.75727 
0.215927 0.647743 4.75554 
-0.94468 0.628092 4.587 
0.812838 0.705274 5.15524 
0.918209 0.709749 5.16254 
0.762506 0.704463 5.12139 
-1.1012 0.643246 4.5655 
-0.979984 0.646011 4.58386 
1.24354 0.679754 4.77219 
0.794861 0.736389 5.14731 
0.886686 0.742388 5.18068 
-1.26254 0.656233 4.53975 
1.39667 0.762953 5.27422 
1.04919 0.759994 5.23116 
0.775924 0.747986 5.12759 
-1.15082 0.672258 4.55165 
-1.0569 0.676642 4.57452 
0.970629 0.760741 5.13383 
0.318394 0.715353 4.82653 
0.299616 0.720974 4.84186 
1.24938 0.78365 5.23864 
-1.11989 0.689655 4.57004 
-0.654869 0.696846 4.62544 
0.251708 0.71597 4.76076 
-0.524305 0.707378 4.67057 
0.555423 0.755076 4.99069 
0.70288 0.769192 5.07575 
-1.06079 0.695387 4.57609 
-0.473219 0.706914 4.67029 
-0.473219 0.706914 4.67029 
0.539656 0.763071 5.0175 
-0.674434 0.711895 4.63185 
0.434433 0.77214 4.93159 
0.641919 0.777148 4.9421 
-1.38013 0.710933 4.49705 
1.28546 0.826086 5.22416 
1.30812 0.829128 5.23794 
-1.12815 0.724748 4.56804 
-1.2485 0.722356 4.53215 
-1.09555 0.730879 4.5726 
0.37631 0.767982 4.80015 
0.177023 0.767649 4.78192 
-1.05976 0.738072 4.5766 
0.798372 0.826059 5.09259 
1.14232 0.852296 5.2238 
0.108715 0.779493 4.77748 
0.108715 0.779493 4.77748 
-1.29492 0.743723 4.53065 
-0.571277 0.762171 4.65815 
-1.01287 0.757819 4.58334 
0.329787 0.809647 4.89558 
0.329787 0.809647 4.89558 
0.422886 0.817606 4.88498 
0.809125 0.858339 5.12984 
0.809125 0.858339 5.12984 
1.28512 0.882904 5.24835 
1.34281 0.876022 5.21929 
0.288019 0.812082 4.82371 
