ply
format ascii 1.0
element vertex 1754
property float x
property float y
property float z
end_header
-0.838751 -0.91311 5.62537 
0.466401 -0.941712 5.84972 
-1.84072 -0.87048 5.43016 
-1.01329 -0.899107 5.61286 
1.40126 -0.966587 6.0522 
1.40126 -0.966587 6.0522 
-1.04792 -0.889911 5.5898 
-0.977008 -0.89164 5.60575 
-1.31187 -0.877666 5.54342 
0.448294 -0.912328 5.80531 
-1.29244 -0.871764 5.5523 
-1.29244 -0.871764 5.5523 
-0.843247 -0.884893 5.62656 
-0.843247 -0.884893 5.62656 
0.064072 -0.904563 5.78454 
-1.08446 -0.871554 5.58563 
2.27137 -1.94277 11.9228 
-1.35367 -0.853394 5.54571 
-0.615459 -0.872563 5.67577 
0.434077 -0.895934 5.84953 
-1.29312 -0.846619 5.54589 
-1.20415 -0.850691 5.57177 
0.45152 -0.887788 5.83704 
1.04152 -0.695998 4.72673 
-1.14532 -0.845186 5.57547 
-1.14532 -0.845186 5.57547 
-1.14532 -0.845186 5.57547 
-1.09384 -0.845611 5.58909 
-0.775503 -0.854866 5.64492 
-0.702851 -0.842454 5.64031 
-1.3178 -0.825533 5.54236 
-1.16338 -0.832942 5.58674 
-1.30111 -0.822337 5.55153 
-1.26352 -0.815777 5.5678 
1.08742 -0.872779 5.95743 
1.08742 -0.872779 5.95743 
-0.842642 -0.823574 5.64285 
-1.32029 -0.805922 5.54714 
-1.06496 -0.8075 5.59589 
2.45758 -2.26235 14.9197 
3.66478 -3.51935 23.0179 
-1.16065 -0.799618 5.57062 
0.753816 -0.562042 4.14891 
0.753816 -0.562042 4.14891 
-1.39104 -0.792369 5.53501 
0.417644 -0.836979 5.86252 
-0.0347245 -0.817645 5.73996 
-1.14509 -0.788782 5.57842 
-0.783587 -0.796098 5.64133 
-0.699994 -0.802353 5.6834 
-0.481178 -0.799127 5.70562 
-0.256462 -0.806576 5.74677 
0.843544 -0.666702 4.88542 
0.093766 -0.880232 6.3287 
0.224791 -0.812146 5.82249 
-1.07923 -0.775384 5.59979 
-1.0401 -0.776943 5.60953 
-0.98865 -0.778175 5.62118 
-0.669946 -0.789669 5.69619 
-0.974279 -0.473741 3.58853 
-0.759639 -0.781257 5.6594 
-0.790746 -0.893534 6.49599 
-0.446014 -0.789135 5.71466 
0.999377 -0.82304 5.96444 
0.10748 -0.79369 5.78695 
0.175078 -0.794366 5.80056 
-1.319 -0.753779 5.534 
-0.60956 -0.775947 5.69391 
1.01532 -0.814441 5.9987 
-1.15881 -0.748861 5.58545 
-0.492885 -0.766969 5.70762 
1.03892 -0.800573 5.98449 
-1.03722 -0.750424 5.60826 
-0.623678 -0.754284 5.6625 
-0.136458 -0.772881 5.78312 
-0.136458 -0.772881 5.78312 
-0.0567284 -0.764781 5.76253 
0.399001 -0.781641 5.87739 
-0.196693 -0.762296 5.7583 
-0.196693 -0.762296 5.7583 
0.296812 -0.768441 5.81944 
-1.19691 -0.736913 5.57735 
-0.514451 -0.749524 5.69272 
-0.306035 -0.754765 5.71913 
0.335211 -0.767613 5.82049 
-1.69432 -0.718685 5.46619 
-0.390823 -0.751997 5.71892 
-1.14758 -0.730316 5.59082 
-0.645448 -0.755651 5.76368 
-0.716689 -0.739519 5.68063 
-0.654278 -0.739152 5.67364 
-1.28957 -0.720496 5.55891 
-1.27367 -0.720692 5.56582 
0.318297 -0.757167 5.84354 
0.318297 -0.757167 5.84354 
0.812407 -0.77147 5.94773 
0.834405 -0.628849 4.97375 
-1.62845 -0.70664 5.47091 
-0.466087 -0.735891 5.7343 
-0.0274309 -0.743312 5.77845 
-0.566092 -0.725747 5.68615 
-0.566092 -0.725747 5.68615 
0.714585 -0.799634 6.23114 
-1.1426 -0.710024 5.57874 
-0.518919 -0.724276 5.70065 
0.442516 -0.743645 5.87776 
0.718309 -0.744626 5.87702 
0.788389 -0.745802 5.91015 
-0.0636461 -0.734275 5.8435 
0.675612 -0.739633 5.87789 
-1.40017 -0.688505 5.53083 
-0.607453 -0.70421 5.65206 
-1.84156 -0.675727 5.44314 
-1.04909 -0.697722 5.61624 
-0.918655 -0.700794 5.64068 
-0.532746 -0.708411 5.70879 
0.683191 -0.729647 5.94298 
0.72431 -0.727015 5.92408 
0.182319 -0.709296 5.80221 
0.292984 -0.71113 5.82324 
-0.830141 -0.688943 5.65457 
-0.795036 -0.684565 5.65487 
0.808631 -0.717238 5.91341 
-1.61487 -0.665232 5.49836 
0.694257 -0.712592 5.89708 
-0.715276 -0.678925 5.66669 
0.0873625 -0.693795 5.80532 
-1.1366 -0.668051 5.59571 
-1.10598 -0.666237 5.59629 
0.716801 -0.702531 5.90345 
-0.901483 -0.6682 5.64757 
-0.803061 -0.670465 5.67082 
-1.60895 -0.643357 5.49518 
-0.599211 -0.665774 5.65964 
-0.0432473 -0.675146 5.75344 
0.102891 -0.678034 5.79139 
0.229196 -0.68258 5.82498 
-0.770487 -0.662362 5.66451 
-1.38818 -0.645983 5.54909 
-0.703427 -0.662187 5.68185 
-0.703427 -0.662187 5.68185 
-0.163277 -0.671084 5.76774 
-1.58812 -0.637136 5.50844 
-1.54992 -0.638487 5.51133 
-1.02154 -0.649963 5.61908 
-0.115204 -0.664639 5.76875 
0.562493 -0.577066 5.07394 
0.0892783 -0.666135 5.80345 
0.6833 -0.673814 5.9007 
-1.63155 -0.628119 5.49873 
-1.1803 -0.63923 5.58821 
-1.50673 -0.623792 5.51116 
-0.962175 -0.639804 5.63442 
-0.681438 -0.641713 5.65997 
0.435153 -0.663169 5.85288 
-1.69332 -0.618058 5.48125 
-1.43422 -0.623297 5.53138 
-1.03177 -0.632701 5.61659 
0.607677 -0.66043 5.8551 
0.681454 -0.714055 6.30455 
-1.59339 -0.61799 5.50241 
-1.59339 -0.61799 5.50241 
-1.0521 -0.631886 5.62144 
0.377866 -0.656962 5.86635 
0.477915 -0.659698 5.88164 
-1.08719 -0.627419 5.60311 
-1.80018 -0.607796 5.46214 
-1.70903 -0.607254 5.46874 
-1.70903 -0.607254 5.46874 
-0.821249 -0.626436 5.66257 
-0.746048 -0.628272 5.68322 
-0.604933 -0.630013 5.6956 
-1.5528 -0.606165 5.5095 
-1.72797 -0.590978 5.47583 
-1.72797 -0.590978 5.47583 
-0.913245 -0.610452 5.65395 
-0.629104 -0.612817 5.69487 
0.135522 -0.624624 5.81534 
0.135522 -0.624624 5.81534 
0.345466 -0.624871 5.8373 
-1.08633 -0.598381 5.60433 
-0.561571 -0.610368 5.70602 
0.434236 -0.627405 5.87016 
0.471482 -0.623287 5.8357 
-1.65353 -0.583228 5.49542 
-1.23386 -0.590445 5.57419 
0.491812 -0.622161 5.8871 
-1.71664 -0.573265 5.47563 
-1.31275 -0.582656 5.56098 
-1.31275 -0.582656 5.56098 
-0.182139 -0.607646 5.79617 
-0.100492 -0.604841 5.77556 
0.411509 -0.610148 5.83277 
-1.60272 -0.572254 5.50624 
-0.606063 -0.58966 5.70414 
-1.54764 -0.568788 5.51333 
-0.915699 -0.581838 5.65259 
-0.767633 -0.584655 5.68436 
-1.6847 -0.562036 5.48798 
-1.6847 -0.562036 5.48798 
-1.05027 -0.577853 5.62659 
-1.05027 -0.577853 5.62659 
0.429874 -0.590648 5.84675 
-0.38101 -0.579466 5.74527 
0.0214258 -0.584099 5.79468 
0.505425 -0.595246 5.91029 
-0.869708 -0.563218 5.63475 
-0.811627 -0.56557 5.65534 
-0.752633 -0.567859 5.66941 
-0.632226 -0.573671 5.72404 
-0.632226 -0.573671 5.72404 
-0.653823 -0.570377 5.71519 
-0.578955 -0.567474 5.72041 
-0.516963 -0.571073 5.71826 
-0.273685 -0.573749 5.75688 
0.0402678 -0.577683 5.80318 
-1.14752 -0.554292 5.60921 
-0.986333 -0.551409 5.63444 
-0.885613 -0.550434 5.63503 
0.333342 -0.57136 5.82731 
-0.944304 -0.549067 5.64106 
-1.54432 -0.533376 5.51021 
-0.105965 -0.55685 5.77036 
0.3908 -0.562817 5.87825 
-1.15875 -0.540344 5.63141 
-0.602847 -0.546935 5.70938 
-0.565275 -0.545891 5.71652 
-0.385207 -0.544272 5.73571 
0.0210179 -0.55162 5.79414 
0.493434 -0.559202 5.90336 
-0.544041 -0.541209 5.7087 
-0.0645035 -0.546399 5.77503 
-0.246978 -0.536658 5.767 
-0.363144 -0.532589 5.73992 
-0.363144 -0.532589 5.73992 
-0.164217 -0.536966 5.77016 
0.473166 -0.543969 5.8792 
-1.85447 -0.504004 5.44833 
-0.661514 -0.524994 5.67521 
-0.661514 -0.524994 5.67521 
-1.77805 -0.500606 5.45886 
-1.75792 -0.500473 5.47971 
-1.41291 -0.506998 5.54662 
-1.13194 -0.508047 5.58224 
-1.13194 -0.508047 5.58224 
1.58829 -0.56762 6.19475 
-0.0491901 -0.525296 5.7994 
-1.82635 -0.490261 5.45776 
-1.48769 -0.498152 5.52942 
-1.48769 -0.498152 5.52942 
-1.17134 -0.501248 5.57626 
-0.462371 -0.514305 5.71911 
-0.77435 -0.508472 5.67462 
-0.609241 -0.511497 5.70889 
-0.609241 -0.511497 5.70889 
-0.209669 -0.510927 5.79456 
1.55185 -0.545366 6.17374 
-1.59102 -0.479644 5.52203 
-1.15662 -0.485571 5.60735 
0.333227 -0.510006 5.90275 
-1.41456 -0.474226 5.55266 
-1.41456 -0.474226 5.55266 
-0.633704 -0.491561 5.73469 
-0.457885 -0.49111 5.73543 
-0.191737 -0.496267 5.79513 
-1.20586 -0.476001 5.60769 
-0.275845 -0.49108 5.77329 
0.267557 -0.492796 5.81547 
-0.427671 -0.487443 5.74879 
-0.6474 -0.478959 5.69018 
0.514412 -0.491807 5.90399 
-0.476573 -0.474115 5.73185 
-0.476573 -0.474115 5.73185 
0.252176 -0.483041 5.83728 
0.336213 -0.485885 5.85746 
-1.83931 -0.449679 5.4563 
-1.83931 -0.449679 5.4563 
0.418241 -0.478099 5.80339 
-1.15469 -0.459356 5.60033 
-0.933263 -0.459893 5.64229 
-1.80192 -0.445811 5.46887 
-0.750737 -0.462242 5.672 
-1.63729 -0.444197 5.49265 
-1.52054 -0.446251 5.53124 
-0.519529 -0.461082 5.72777 
-0.236356 -0.463652 5.75498 
0.215809 -0.471697 5.83824 
-0.323083 -0.462119 5.76491 
-0.323083 -0.462119 5.76491 
-1.22051 -0.446806 5.59741 
1.57585 -0.490969 6.14449 
-1.40703 -0.438116 5.55201 
-1.1491 -0.444645 5.61547 
-1.12322 -0.444638 5.61472 
-0.440212 -0.454545 5.74811 
0.202749 -0.455585 5.82914 
-0.508803 -0.447786 5.74969 
-0.682977 -0.441577 5.70124 
-1.60553 -0.422056 5.5162 
-0.28249 -0.441662 5.7398 
0.424852 -0.451982 5.88192 
0.544501 -0.442132 5.88573 
-1.88572 -0.410734 5.46358 
0.992295 -0.450175 5.98349 
-0.566835 -0.427577 5.71992 
-0.545042 -0.425926 5.72841 
-1.6192 -0.407592 5.51003 
-0.156029 -0.424159 5.77703 
-0.0875907 -0.424102 5.80012 
-0.650795 -0.412942 5.70241 
-0.650795 -0.412942 5.70241 
-0.380485 -0.412379 5.73039 
0.977452 -0.429037 5.99932 
9763.52 -5252.11 59402.3 
1.63001 -0.447224 6.19758 
1.72101 -0.436771 6.22555 
0.41932 -0.404462 5.84663 
0.41932 -0.404462 5.84663 
0.508805 -0.403788 5.85484 
0.206011 -0.405752 5.87236 
-0.184073 -0.395207 5.8566 
0.0863935 -0.394397 5.83148 
1.01044 -0.408954 6.01466 
1.62649 -0.422744 6.19492 
-0.659689 -0.384591 5.71755 
-1.8061 -0.361992 5.4799 
-0.0194506 -0.383643 5.80714 
-0.0194506 -0.383643 5.80714 
0.957992 -0.397736 5.99494 
-1.22969 -0.367196 5.5927 
-0.673299 -0.372278 5.7285 
-0.101022 -0.375721 5.78998 
0.31001 -0.371259 5.83426 
0.0390462 -0.371235 5.83953 
0.943664 -0.378642 5.97885 
-0.390914 -0.359688 5.74758 
0.175045 -0.36452 5.80687 
-0.780498 -0.352513 5.69789 
-0.716737 -0.346988 5.68813 
-0.716737 -0.346988 5.68813 
-0.616373 -0.347381 5.72763 
0.0949941 -0.35213 5.7986 
0.951749 -0.359334 5.96373 
0.0262634 -0.350114 5.81177 
0.0548401 -0.35014 5.80531 
0.58765 -0.352952 5.90198 
1.54534 -0.373771 6.18027 
-0.000104796 -0.344368 5.79121 
0.241022 -0.345071 5.79166 
0.550986 -0.349075 5.87684 
-1.82404 -0.312791 5.45968 
0.266913 -0.33382 5.85765 
0.993887 -0.345676 6.02377 
-0.160645 -0.327241 5.78684 
-0.145041 -0.32969 5.81262 
0.322226 -0.332178 5.86157 
0.169514 -0.323482 5.82453 
0.246097 -0.316496 5.81414 
-1.82188 -0.294782 5.4662 
0.277285 -0.314065 5.80435 
0.925751 -0.324628 6.03078 
-0.609682 -0.305586 5.73435 
-0.3442 -0.308704 5.77892 
-0.000208551 -0.309812 5.81376 
0.0984483 -0.310683 5.83574 
1.07076 -0.319476 6.05242 
-0.0700437 -0.304727 5.8016 
0.54845 -0.307706 5.90731 
0.175068 -0.302435 5.83076 
0.411719 -0.306515 5.88275 
-0.367209 -0.29485 5.77464 
0.908111 -0.303409 5.98487 
0.908111 -0.303409 5.98487 
0.353787 -0.290946 5.88653 
1.05755 -0.30052 6.05089 
0.302224 -0.284894 5.84164 
0.540532 -0.289016 5.89299 
-1.82763 -0.262529 5.46705 
-0.181311 -0.280751 5.76469 
1.00694 -0.289138 6.00736 
-1.0305 -0.265126 5.63461 
-0.0706618 -0.273407 5.7981 
-0.0706618 -0.273407 5.7981 
0.892094 -0.285628 5.99968 
-0.39957 -0.277576 5.7738 
-0.10112 -0.272638 5.80661 
-0.118963 -0.266763 5.79912 
0.546449 -0.269228 5.85001 
0.573405 -0.270641 5.87518 
-0.478794 -0.263344 5.77437 
-0.351961 -0.261254 5.72713 
0.300022 -0.26859 5.87795 
-0.203556 -0.259515 5.77349 
0.35621 -0.264376 5.88819 
-1.16655 -0.249134 5.61117 
-0.493938 -0.255605 5.71552 
0.882816 -0.268835 6.01517 
0.882816 -0.268835 6.01517 
0.259618 -0.254134 5.80782 
-0.517545 -0.249478 5.73669 
0.120539 -0.252141 5.80793 
-1.85841 -0.233169 5.4545 
0.991669 -0.258118 6.02777 
-1.029 -0.237101 5.6347 
1.04991 -0.258216 6.03683 
1.07254 -0.252757 6.06695 
-0.608044 -0.235174 5.72217 
-0.487629 -0.236336 5.71855 
-0.176793 -0.231137 5.79151 
-0.269325 -0.228707 5.77923 
-0.195771 -0.228072 5.80112 
0.0615024 -0.228717 5.83279 
0.0826484 -0.232115 5.84603 
-0.317088 -0.219769 5.75019 
0.325349 -0.225624 5.90688 
-1.75847 -0.19939 5.4773 
-1.75847 -0.19939 5.4773 
0.287558 -0.208515 5.85787 
0.374293 -0.208261 5.86707 
0.538425 -0.210308 5.89839 
-1.83918 -0.191808 5.46311 
0.587937 -0.204887 5.9122 
-0.330354 -0.195189 5.77438 
-0.330354 -0.195189 5.77438 
0.395353 -0.192921 5.79672 
0.552063 -0.196094 5.9078 
0.134751 -0.19147 5.83777 
-1.8657 -0.172679 5.4692 
-1.84436 -0.173591 5.46506 
-0.704347 -0.166556 5.70052 
-0.521081 -0.162427 5.73156 
0.187276 -0.166825 5.8585 
0.338575 -0.163823 5.81188 
0.338575 -0.163823 5.81188 
-0.113699 -0.160116 5.76869 
0.961781 -0.165392 6.04908 
0.961781 -0.165392 6.04908 
0.401417 -0.151816 5.87314 
-0.344718 -0.147764 5.77173 
-0.344718 -0.147764 5.77173 
-0.326534 -0.148216 5.75366 
-0.0431023 -0.150013 5.80771 
-0.211423 -0.14559 5.79436 
-0.211423 -0.14559 5.79436 
-0.211423 -0.14559 5.79436 
0.00753812 -0.145709 5.80915 
0.00753812 -0.145709 5.80915 
-0.520904 -0.137543 5.72914 
-0.666481 -0.13325 5.71786 
0.184072 -0.134513 5.82423 
-1.81647 -0.121889 5.48686 
-1.81647 -0.121889 5.48686 
0.537951 -0.132872 5.8886 
1.06355 -0.14034 6.03319 
-0.226425 -0.129599 5.80139 
0.117352 -0.125015 5.831 
0.231491 -0.127969 5.86609 
0.5683 -0.126867 5.88753 
-0.00633761 -0.115581 5.83054 
-0.051177 -0.108959 5.77524 
-0.051177 -0.108959 5.77524 
0.295448 -0.108899 5.86262 
0.295448 -0.108899 5.86262 
-0.325499 -0.101433 5.77402 
0.463681 -0.101886 5.80695 
0.331829 -0.0990443 5.84267 
-1.03038 -0.0903781 5.65257 
-0.158616 -0.0923346 5.76158 
-1.04945 -0.0888915 5.62226 
0.217711 -0.0922978 5.85144 
0.284481 -0.0875368 5.83849 
0.909166 -0.0907472 6.1247 
-1.73705 -0.0721357 5.49265 
0.0537581 -0.0745747 5.83775 
0.298512 -0.0741065 5.84746 
0.298512 -0.0741065 5.84746 
0.153154 -0.0738734 5.83397 
0.24737 -0.072123 5.78986 
-0.396952 -0.0666979 5.76757 
0.433632 -0.0687176 5.8721 
-1.81996 -0.0574955 5.47126 
1.56482 -0.068859 6.26395 
0.897625 -0.0619911 6.06345 
-0.44888 -0.0501306 5.75827 
0.11942 -0.0511072 5.79712 
0.190102 -0.0531498 5.8131 
-0.63244 -0.0469206 5.75074 
0.250826 -0.0439279 5.83616 
-0.646323 -0.0432988 5.69869 
0.059422 -0.0419875 5.83753 
0.911951 -0.0442456 6.06603 
0.911951 -0.0442456 6.06603 
0.963749 -0.0472504 6.07752 
0.963749 -0.0472504 6.07752 
0.0241315 -0.0397209 5.82047 
0.589831 -0.0405114 5.93881 
0.589831 -0.0405114 5.93881 
-0.492252 -0.0365814 5.76609 
-0.180397 -0.0368841 5.78818 
0.997505 -0.029256 6.17894 
0.433966 -0.0238897 5.85797 
-1.17799 -0.0191073 5.62155 
0.148986 -0.00956366 5.81937 
0.170653 -0.00640696 5.78659 
0.170653 -0.00640696 5.78659 
0.632209 -0.00847627 5.94041 
1.06865 -0.00763939 6.17266 
-0.690376 -0.00457552 5.70461 
0.97343 -0.00689188 6.11949 
0.775867 0.00218698 6.11126 
-0.491281 0.00748625 5.67801 
-0.491281 0.00748625 5.67801 
0.361256 0.00532222 5.8632 
1.04791 0.0121991 6.13241 
-0.0210102 0.016975 5.8845 
0.448364 0.0171132 5.89438 
0.788642 0.0346745 4.84195 
0.529798 0.0209868 5.85172 
-0.418725 0.0221732 5.76919 
0.152134 0.0225878 5.852 
0.311527 0.0220211 5.872 
-0.805004 0.0270202 5.69537 
-0.552529 0.0271089 5.74455 
-0.341615 0.0303443 5.78023 
-0.219468 0.029311 5.84859 
0.120746 0.0370892 5.8398 
0.166941 0.0400083 5.82932 
0.626501 0.0389578 5.99893 
-0.425832 0.0419103 5.78519 
-0.425832 0.0419103 5.78519 
-0.694102 0.0506916 5.71467 
-0.694102 0.0506916 5.71467 
0.46582 0.0545812 5.8582 
1.41166 0.0636169 6.2925 
0.430906 0.0648 5.86518 
-0.634064 0.0699498 5.72506 
-0.634064 0.0699498 5.72506 
0.283255 0.0733637 5.87038 
0.312797 0.0729198 5.80863 
0.495335 0.07062 5.73422 
0.91696 0.0736463 6.10929 
0.91696 0.0736463 6.10929 
-1.01845 0.0749495 5.67956 
-0.110348 0.0790875 5.80406 
-0.705704 0.078442 5.70977 
0.907924 0.0884082 6.14747 
-0.576128 0.0861962 5.72311 
0.268136 0.0863812 5.82053 
-0.760748 0.0878709 5.70593 
-0.331759 0.0937623 5.8064 
-0.24372 0.0935949 5.75433 
0.463291 0.101216 5.85664 
0.731198 0.102005 6.04205 
-0.531447 0.101852 5.75268 
1.57699 0.110149 6.30701 
0.254108 0.107867 5.79046 
1.28055 0.111174 6.2338 
1.28055 0.111174 6.2338 
-0.219578 0.108658 5.78055 
1.07565 0.123273 6.22071 
-0.535316 0.12415 5.77835 
0.165327 0.125338 5.76205 
-0.413267 0.129524 5.74206 
-0.087116 0.13045 5.80712 
0.324997 0.133109 5.85874 
-0.504691 0.133042 5.74893 
-0.792452 0.140075 5.70058 
-0.320328 0.147199 5.76765 
0.864815 0.1598 6.13873 
0.864815 0.1598 6.13873 
0.520543 0.152889 5.78898 
0.913869 0.16241 6.19268 
1.15708 0.173366 6.28446 
0.892448 0.171387 6.17138 
-0.114598 0.160906 5.76966 
0.174124 0.167342 5.8811 
0.174124 0.167342 5.8811 
0.211426 0.162502 5.71884 
-0.285837 0.168007 5.79291 
-0.461757 0.170076 5.75748 
-0.18225 0.174016 5.83596 
-0.793033 0.172166 5.69242 
-0.712462 0.172768 5.70894 
0.689284 0.189084 6.22876 
0.755096 0.189906 6.18617 
-1.76524 0.176055 5.49568 
-0.653802 0.180501 5.71987 
-0.547563 0.179807 5.75691 
0.556837 0.189411 5.90809 
-0.570029 0.191151 5.73374 
0.298775 0.194846 5.85438 
0.715242 0.206928 6.13633 
1.04567 0.21494 6.29191 
-0.244505 0.201139 5.77372 
-0.223069 0.201629 5.79066 
1.07659 0.214813 6.23635 
-1.37607 0.202666 5.57657 
-0.0226943 0.212102 5.78912 
-0.0226943 0.212102 5.78912 
0.477225 0.225265 6.15075 
0.619744 0.2238 6.05566 
0.619744 0.2238 6.05566 
0.995803 0.235203 6.276 
0.755225 0.237523 6.25735 
0.755225 0.237523 6.25735 
-1.30348 0.224946 5.61039 
-0.945581 0.228827 5.67528 
-0.086207 0.233114 5.80842 
1.01957 0.248665 6.23987 
1.08492 0.249061 6.29143 
-0.625567 0.233233 5.72176 
27924.3 -3580.13 162979 
-1.00975 0.237686 5.65929 
-1.00975 0.237686 5.65929 
-0.779267 0.239658 5.70911 
-0.52045 0.243707 5.74616 
-0.52045 0.243707 5.74616 
1.07389 0.269085 6.31047 
-0.954913 0.248408 5.65063 
0.251423 0.256925 5.80805 
-1.32017 0.248856 5.60094 
-1.02575 0.254268 5.66738 
-1.41097 0.252515 5.58207 
-1.30427 0.255616 5.6002 
1.57708 0.287073 6.35083 
-0.488487 0.267913 5.75548 
-0.090021 0.26866 5.83191 
0.725171 0.294402 6.29985 
0.898391 0.301864 6.47601 
0.998458 0.294231 6.31505 
0.998458 0.294231 6.31505 
1.07281 0.292124 6.3157 
-1.78241 0.261552 5.49948 
-1.78241 0.261552 5.49948 
-1.43256 0.2647 5.57069 
-1.21214 0.270345 5.63197 
-1.21214 0.270345 5.63197 
0.972888 0.296539 6.27923 
-0.443183 0.280675 5.78495 
0.360533 0.277898 5.7505 
0.948144 0.30599 6.3351 
-1.30105 0.27365 5.60559 
-0.849496 0.280327 5.68586 
0.469005 0.267168 5.44221 
1.19594 0.307212 6.32486 
-1.25628 0.277711 5.6101 
-1.81929 0.27718 5.49075 
1.04813 0.318395 6.31926 
-0.0371419 0.296678 5.78242 
0.745091 0.325475 6.39502 
0.761061 0.323346 6.35798 
-1.32551 0.290628 5.59986 
-1.24963 0.293568 5.61261 
-0.977611 0.296568 5.65536 
-0.939468 0.295661 5.63539 
-0.838666 0.297872 5.68653 
-0.838666 0.297872 5.68653 
-0.0545558 0.303357 5.80073 
0.689568 0.33858 6.50591 
-1.29992 0.297324 5.59707 
-1.29992 0.297324 5.59707 
-1.29992 0.297324 5.59707 
0.43293 0.302952 5.7386 
1.19791 0.332255 6.30424 
-1.12513 0.301387 5.6534 
0.108861 0.307614 5.76974 
0.446385 0.298145 5.61263 
-0.129941 0.313634 5.80806 
0.891613 0.357715 6.71093 
0.985814 0.339715 6.3398 
0.985814 0.339715 6.3398 
0.763189 0.348776 6.45265 
1.30637 0.351064 6.50617 
-1.32073 0.308933 5.58331 
-0.587148 0.316507 5.72262 
-0.587148 0.316507 5.72262 
-1.514 0.314094 5.5632 
-1.23427 0.316539 5.61943 
0.801814 0.358596 6.41827 
0.801814 0.358596 6.41827 
0.879972 0.358972 6.41493 
-1.41924 0.316216 5.56618 
-0.705684 0.324816 5.70491 
-0.705684 0.324816 5.70491 
-0.544125 0.324938 5.73408 
0.78337 0.360263 6.42033 
0.78337 0.360263 6.42033 
1.11202 0.358859 6.35624 
0.83711 0.360291 6.25341 
0.83711 0.360291 6.25341 
1.00404 0.365359 6.34723 
-0.0361822 0.337629 5.75711 
0.753798 0.373834 6.47389 
0.753798 0.373834 6.47389 
-1.46566 0.329836 5.56519 
-1.37308 0.329611 5.5828 
-1.34882 0.32929 5.58873 
0.171978 0.345099 5.87855 
0.423733 0.325405 5.5218 
0.405489 0.302736 5.09583 
0.405489 0.302736 5.09583 
1.05576 0.376227 6.37191 
-1.23 0.335785 5.64017 
0.414469 0.300948 4.994 
-1.42077 0.340724 5.58104 
-1.17664 0.345529 5.62774 
-1.17664 0.345529 5.62774 
-0.554696 0.350705 5.73185 
-21467.4 138527 -2.42175e+006 
-1.50954 0.344935 5.56745 
-1.07324 0.350486 5.65277 
0.398764 0.286433 4.63623 
-0.530825 0.360018 5.75728 
0.674573 0.423799 6.83091 
1.0383 0.39295 6.34496 
-1.52677 0.35036 5.55915 
-1.01907 0.359989 5.65925 
-0.454963 0.362902 5.76287 
-0.941009 0.364934 5.67599 
0.0954271 0.365441 5.71573 
1.1487 0.406801 6.31949 
-0.999622 0.369943 5.66277 
0.782897 0.429462 6.61467 
-0.924644 0.379676 5.69877 
-0.566291 0.376973 5.65658 
0.807241 0.422395 6.32201 
-0.961143 0.382442 5.67655 
-0.961143 0.382442 5.67655 
-0.459579 0.387074 5.7846 
0.212111 0.382096 5.66204 
0.477336 0.387429 5.7332 
0.271902 0.392156 5.77237 
-1.11661 0.385554 5.63512 
-1.20584 0.387119 5.60022 
-0.5397 0.39696 5.73909 
-1.03867 0.394851 5.66 
0.303837 0.394651 5.68149 
0.372879 0.331586 4.78523 
0.660143 0.442139 6.29615 
-1.21498 0.402315 5.60939 
-1.21498 0.402315 5.60939 
-1.21498 0.402315 5.60939 
-0.845104 0.406818 5.69024 
1.02114 0.820872 11.4196 
0.890007 0.461663 6.43852 
1.24504 0.470964 6.56385 
0.372929 0.361258 4.94774 
-1.26198 0.415523 5.59508 
0.348035 0.395284 5.3659 
1.25382 0.478441 6.49875 
-1.44879 0.416066 5.55498 
-1.20328 0.422462 5.616 
-1.20328 0.422462 5.616 
0.835004 0.492855 6.52102 
-0.867905 0.437067 5.69039 
-1.371 0.439451 5.58788 
0.34467 0.44356 5.66049 
1.23666 0.497764 6.35933 
1.36785 0.500041 6.39113 
-0.842374 0.451511 5.69189 
-1.41561 0.448654 5.58813 
-0.610161 0.466543 5.7322 
0.350529 0.486316 6.01124 
0.628278 0.53122 6.46488 
0.911767 0.526784 6.411 
1.36014 0.523315 6.37198 
-1.13062 0.469485 5.63652 
-1.42212 0.467975 5.57875 
0.170496 0.47365 5.70182 
-1.50722 0.472017 5.57558 
0.426934 0.461601 5.52793 
0.426934 0.461601 5.52793 
-0.746219 0.485684 5.73969 
1.02936 0.543277 6.39549 
0.399163 0.47761 5.59576 
0.503668 0.511598 5.97042 
1.06702 0.549384 6.40244 
-1.17437 0.489848 5.65502 
-1.06461 0.489355 5.65402 
0.128966 0.50332 5.78152 
1.20651 0.554571 6.42111 
1.38093 0.556176 6.39429 
-1.09104 0.495869 5.65269 
-0.779226 0.501482 5.70656 
-1.89831 0.487065 5.49873 
-0.840252 0.501598 5.67512 
-0.840252 0.501598 5.67512 
-0.576036 0.508366 5.72069 
-0.0476923 0.510902 5.78634 
-0.0476923 0.510902 5.78634 
1.00821 0.56931 6.43723 
1.00821 0.56931 6.43723 
-1.01007 0.504587 5.67342 
1.04085 0.564825 6.38193 
-1.13328 0.505485 5.63215 
-1.62304 0.500073 5.54456 
-1.37573 0.503204 5.58527 
-0.558717 0.515066 5.73747 
0.49423 0.527903 5.88256 
0.732588 0.583977 6.46989 
-0.928755 0.519796 5.68611 
0.976956 0.581237 6.32008 
1.03963 0.590299 6.42841 
1.21155 0.583899 6.37222 
-1.12161 0.522513 5.64686 
-1.87817 0.509103 5.46965 
-1.24278 0.522901 5.59717 
0.598493 0.58429 6.29036 
1.40442 0.5913 6.38815 
-0.825794 0.53258 5.68829 
-1.01989 0.534995 5.66597 
0.573186 0.591958 6.28159 
-0.853793 0.537826 5.69085 
0.0493688 0.544 5.7623 
0.498838 0.56494 5.96935 
0.498838 0.56494 5.96935 
-1.41961 0.532343 5.57048 
-0.558255 0.54485 5.72413 
-0.558255 0.54485 5.72413 
-0.538056 0.547447 5.73704 
1.35339 0.606505 6.37391 
-1.87434 0.526034 5.48244 
-1.44275 0.536441 5.59458 
-0.578751 0.551018 5.72052 
0.921461 0.621147 6.42843 
-1.51288 0.559469 5.99494 
-1.40386 0.544575 5.57018 
-1.13421 0.551136 5.64521 
-1.02445 0.551272 5.6611 
-0.00365161 0.556634 5.73321 
0.886389 0.618923 6.31747 
1.10423 0.628474 6.43414 
-0.851913 0.558533 5.67733 
-0.813142 0.563474 5.68792 
-1.43718 0.555636 5.56529 
1.57635 0.641732 6.43815 
-1.08119 0.563237 5.62638 
1.52679 0.638897 6.37545 
-1.66769 0.558194 5.52665 
-1.41435 0.561396 5.57131 
-1.3315 0.564144 5.5977 
-1.61791 0.561757 5.54653 
0.588309 0.624212 6.17146 
0.705797 0.663205 6.56204 
0.994322 0.658749 6.54372 
1.03793 0.644343 6.39138 
-0.775668 0.585101 5.70221 
1.13127 0.667367 6.47954 
0.893785 0.661557 6.39289 
0.906657 0.659123 6.35087 
0.632361 0.646881 6.22808 
-1.47335 0.583155 5.57162 
0.422975 0.607573 5.82648 
0.422975 0.607573 5.82648 
-1.23397 0.592179 5.61133 
0.996001 0.681884 6.46812 
-1.45674 0.593527 5.56887 
-1.45674 0.593527 5.56887 
0.748636 0.656169 6.14711 
-1.68378 0.592763 5.52246 
1.08277 0.681755 6.37207 
1.30126 0.686033 6.38517 
1.30126 0.686033 6.38517 
-1.05447 0.608202 5.63822 
0.432772 0.641665 5.89694 
0.432772 0.641665 5.89694 
0.330793 0.614278 5.62643 
0.611973 0.686262 6.27209 
1.81255 0.709569 6.47076 
0.0962305 0.631429 5.72647 
0.561195 0.657977 5.97735 
0.731205 0.687021 6.19991 
-1.53501 0.632608 5.74028 
1.34233 0.694075 6.24218 
-0.90016 0.635215 5.67066 
0.994605 0.713972 6.39809 
1729.91 981.112 9597.06 
0.899976 0.71349 6.33628 
0.899976 0.71349 6.33628 
0.220125 0.660933 5.86023 
0.41005 0.647116 5.75273 
1.09432 0.721056 6.39103 
0.171005 0.653299 5.74156 
0.379734 0.662955 5.83023 
0.416632 0.637346 5.6186 
0.706967 0.718339 6.28386 
0.152582 0.66159 5.77731 
0.4525 0.673683 5.87597 
0.4525 0.673683 5.87597 
0.728915 0.709115 6.15637 
1.37502 0.736691 6.39441 
-1.7938 0.637614 5.51155 
-0.936157 0.654494 5.67299 
1.88621 0.748053 6.48314 
0.545739 0.703078 6.06287 
0.545739 0.703078 6.06287 
0.853065 0.783061 6.73762 
1.536 0.633199 5.37455 
-1.57544 0.649399 5.54077 
-1.10966 0.662524 5.64986 
0.351473 0.68161 5.81389 
0.925298 0.742942 6.31323 
-1.81843 0.6488 5.49445 
-1.4613 0.65925 5.55113 
-0.135775 0.682566 5.80379 
0.305404 0.683234 5.81301 
1.92185 0.765747 6.50135 
-1.44907 0.661136 5.56672 
1.55993 0.645837 5.37931 
-1.57377 0.668551 5.55326 
-1.5175 0.670105 5.55135 
0.560598 0.726812 6.06236 
1.03002 0.749681 6.22861 
1.03002 0.749681 6.22861 
3.04093 1.1907 10.1269 
0.224402 0.695921 5.75982 
1.01299 0.772073 6.36279 
1.27808 0.775218 6.39489 
1.27808 0.775218 6.39489 
1.08548 0.773189 6.3394 
1.49591 0.787307 6.47105 
278.977 412.545 3492.3 
-1.5699 0.686538 5.54316 
-1.54345 0.688983 5.56969 
-1.51474 0.688409 5.56322 
-0.745063 0.70408 5.69948 
0.400349 0.724788 5.87719 
-1.45058 0.690671 5.57002 
0.733494 0.773535 6.24527 
-0.621564 0.711774 5.71627 
0.514657 0.749383 6.03825 
-1.4998 0.697668 5.5719 
-0.775573 0.709946 5.67619 
0.0615263 0.722181 5.77034 
1.13076 0.805493 6.4115 
1.30461 0.805481 6.40683 
0.610749 0.759911 5.98595 
-1.62238 0.706745 5.53745 
-1.09966 0.720082 5.64181 
-1.60183 0.710485 5.54189 
-0.876408 0.72638 5.67637 
-0.876408 0.72638 5.67637 
-0.671512 0.730586 5.71641 
-0.671512 0.730586 5.71641 
0.109577 0.733158 5.74987 
0.263211 0.736075 5.77829 
-0.638614 0.738688 5.7453 
0.414467 0.759453 5.89367 
0.614219 0.794306 6.14186 
-0.956842 0.738278 5.68283 
0.0574765 0.746857 5.7589 
1.10856 0.831842 6.38218 
1.30619 0.83345 6.38871 
-1.41311 0.734085 5.57135 
0.397697 0.777686 5.90127 
0.934118 0.829689 6.28692 
1.53045 0.849092 6.43965 
1.5488 0.846357 6.42572 
-1.70698 0.730017 5.50727 
1.61832 0.851797 6.43858 
-0.681545 0.759064 5.71523 
-0.594755 0.759688 5.70627 
0.282391 0.776272 5.83755 
1.49838 0.859205 6.45153 
-1.88918 0.763364 5.73555 
1.40236 0.86686 6.43408 
1.58152 0.870947 6.46593 
1.63929 0.865561 6.42702 
-1.72526 0.748252 5.52042 
-0.624136 0.7736 5.73195 
-1.8486 0.748019 5.50228 
-1.8486 0.748019 5.50228 
-0.955328 0.7684 5.66053 
-1.52581 0.759492 5.56052 
0.448392 0.808356 5.93565 
0.710099 0.817311 5.99071 
1.05186 0.862031 6.32274 
1.30872 0.886858 6.50547 
1.64225 0.886186 6.51043 
-1.82845 0.753842 5.50486 
0.549428 0.821313 5.97367 
-1.29573 0.776881 5.60664 
1.38766 0.960932 6.95424 
-1.27751 0.782671 5.60829 
1.03977 0.874932 6.254 
1.56449 0.897631 6.44296 
-1.53921 0.780083 5.57223 
1.24444 0.898381 6.4052 
-0.969249 0.798804 5.66386 
0.0599733 0.811651 5.79058 
1.69488 0.902416 6.4047 
1.39945 0.908704 6.42614 
1.60793 0.913154 6.47035 
-1.36963 0.792294 5.58847 
-0.513229 0.818311 5.73193 
0.496931 0.852631 6.01895 
-1.18196 0.802103 5.63205 
-1.18196 0.802103 5.63205 
-0.929364 0.809376 5.68066 
0.47606 0.857862 6.01582 
-1.21207 0.80803 5.61679 
0.924319 0.902182 6.25865 
-1.3241 0.811379 5.60025 
-1.3241 0.811379 5.60025 
1.30686 0.92745 6.41613 
1.7861 0.9532 6.60843 
0.36816 0.855228 5.90196 
0.561792 0.890487 6.11115 
1.21132 0.922048 6.30802 
1.35598 1.0058 6.88243 
0.275773 0.859914 5.8598 
0.524706 0.878588 5.97228 
0.693656 0.905644 6.14238 
-1.31947 0.830542 5.59886 
-1.23457 0.831459 5.61354 
-0.502121 0.839599 5.67589 
0.0774734 0.871113 5.82786 
0.0774734 0.871113 5.82786 
-1.24793 0.84214 5.60733 
-0.765585 0.857906 5.71578 
0.100925 0.869689 5.80928 
-0.524944 0.863883 5.73965 
0.45045 0.890582 5.88786 
0.983778 0.964009 6.32421 
0.70816 0.936203 6.13016 
1.09778 0.967735 6.31839 
1.40061 0.766683 4.95766 
-0.86814 0.875969 5.70209 
-0.623944 0.875404 5.70617 
0.374517 0.902626 5.90028 
1.06408 0.971418 6.32777 
1.45375 0.98698 6.43439 
-0.597601 0.880372 5.7255 
1.17576 0.993731 6.34791 
-0.81248 0.8779 5.61407 
0.484551 0.951567 6.06687 
-0.774575 0.891137 5.67732 
0.849928 0.976727 6.19891 
0.0822262 0.918763 5.8023 
0.270148 0.925163 5.85665 
0.56631 0.978942 6.16677 
-0.933479 0.897212 5.63745 
0.715384 0.974668 6.12177 
0.993875 0.995762 6.25128 
0.351241 0.927704 5.8295 
-0.755552 0.912965 5.69178 
0.777445 0.997485 6.22177 
0.875145 0.998596 6.22451 
0.932389 1.0059 6.26802 
0.932389 1.0059 6.26802 
-1.35836 0.898845 5.58999 
-0.737877 0.918851 5.72 
0.252992 1.36095 8.62791 
0.84324 0.993707 6.19011 
1.56958 1.04262 6.46298 
1.56958 1.04262 6.46298 
1.63469 1.04044 6.44036 
0.0665773 0.930569 5.76265 
1.14489 1.02662 6.31943 
1.14489 1.02662 6.31943 
1.93925 1.05842 6.52296 
1.61612 1.05089 6.43976 
-1.34636 0.917135 5.61003 
-1.01518 0.917791 5.60751 
-0.574848 0.919342 5.6216 
0.435617 0.986136 6.03957 
1.07028 1.03703 6.30838 
1.07028 1.03703 6.30838 
1.65731 1.05808 6.43425 
1.04105 1.04663 6.32139 
-0.997076 0.941443 5.68306 
1.01343 1.04827 6.2835 
2.25817 1.23297 7.36502 
-1.31869 0.944839 5.59753 
0.694307 1.03362 6.12399 
0.847771 1.04953 6.2163 
1.17216 1.06933 6.33642 
0.238558 0.992027 5.87648 
1.40934 1.08573 6.43067 
0.417807 1.01466 5.9937 
1.03167 1.07142 6.28607 
2.76767 1.50858 8.93209 
-0.991907 0.969572 5.65768 
-0.571996 0.977592 5.69734 
0.657618 1.04517 6.10715 
0.673678 1.029 6.00501 
1.30267 1.09878 6.37523 
1.16288 0.758625 4.3356 
-0.949818 0.983623 5.66192 
1.53851 1.11723 6.43477 
-0.937175 0.942198 5.37454 
0.647748 1.06147 6.0797 
0.82805 1.08847 6.2255 
1.14445 1.11246 6.34036 
-0.579098 1.0078 5.71906 
1.24939 1.12058 6.35415 
1.24939 1.12058 6.35415 
1.3885 0.901699 5.087 
1.52063 1.1439 6.45679 
-1.00565 1.00249 5.65346 
-1.60729 0.991566 5.5258 
0.506398 1.08401 6.06334 
1.30612 1.14504 6.38044 
1.47941 1.1483 6.40848 
1.47941 1.1483 6.40848 
-0.575878 1.03023 5.74031 
-1.01858 1.01477 5.63498 
-0.66258 1.03073 5.69356 
1.46717 1.1453 6.30279 
1.15484 0.770445 4.19998 
-1.61239 1.01907 5.56874 
-0.577057 1.04732 5.73283 
7.82924 4.26595 23.66 
-1.243 1.03244 5.60137 
-1.243 1.03244 5.60137 
0.474216 1.09551 5.96412 
0.474216 1.09551 5.96412 
0.8945 1.29321 7.00686 
1.81121 1.1939 6.48648 
-1.31621 1.03293 5.59273 
1.09523 1.17148 6.29805 
1.39342 1.18974 6.40217 
-0.0662902 1.07961 5.81497 
0.350061 1.10636 5.94269 
-0.368363 1.07803 5.77119 
-0.368363 1.07803 5.77119 
0.792052 1.15513 6.18316 
-0.701094 1.04623 5.56733 
0.258206 1.09591 5.86658 
0.482827 1.13385 6.05706 
-1.07149 1.06415 5.65937 
-0.356723 1.09371 5.81167 
0.641092 1.16087 6.16632 
-1.24626 1.06658 5.61304 
-0.676749 1.08615 5.70763 
0.180579 1.11252 5.86496 
0.938632 1.18019 6.20885 
241.277 497.883 2641.5 
1.63866 1.23004 6.42977 
-1.73408 1.05287 5.50479 
-1.01437 1.05424 5.47476 
0.409355 1.15012 6.00319 
1.1233 1.20681 6.27735 
-1.23922 1.08519 5.61555 
-0.699241 1.10173 5.71242 
0.307096 1.14283 5.92188 
0.432767 1.15836 6.01456 
-0.976389 1.0924 5.63649 
0.368043 1.14639 5.93229 
0.368043 1.14639 5.93229 
0.274728 1.1461 5.90745 
0.396208 1.15321 5.93728 
0.623499 1.18432 6.09203 
-0.782119 1.1168 5.72091 
-0.650139 1.11719 5.72746 
-1.00704 1.10535 5.64514 
-0.718012 1.11783 5.71257 
0.905925 1.22037 6.22843 
0.999558 1.22812 6.27164 
-1.29966 1.10033 5.59894 
-1.11039 1.14425 5.8497 
-1.8608 1.08347 5.49398 
0.884738 1.22982 6.23925 
-1.74701 1.06026 5.35294 
0.476667 1.1824 6.00012 
0.883729 1.10203 5.59368 
1.67803 1.28585 6.50649 
-1.6362 1.09996 5.54174 
0.91937 1.227 6.19539 
-1.45658 1.10682 5.56185 
-1.71725 1.11412 5.5497 
-1.71725 1.11412 5.5497 
-1.30322 1.1205 5.59513 
1.03976 1.38595 6.89997 
-1.40406 1.12342 5.60486 
-1.10198 1.14134 5.66486 
1.06235 1.27153 6.2759 
-0.609768 1.16274 5.7368 
-0.609768 1.16274 5.7368 
-1.18439 1.14777 5.62577 
1.13243 1.28609 6.28951 
-1.40476 1.16535 5.72136 
-0.700885 1.16828 5.7133 
-1.33857 1.15026 5.5964 
0.467105 1.23009 5.99063 
0.467105 1.23009 5.99063 
7010.79 3825.07 20563.7 
-1.19689 1.16237 5.62749 
0.569539 1.2644 6.13151 
1.15061 1.29276 6.24643 
-1.12599 1.16526 5.63875 
1.16297 1.2891 6.20981 
1.56041 1.3365 6.42596 
-1.10467 1.16893 5.61783 
0.312615 1.23393 5.92441 
-0.708452 1.19874 5.7268 
-0.61683 1.20055 5.73685 
1.09532 1.31599 6.27795 
-1.55451 1.26386 6.12547 
-1.14819 1.18846 5.63657 
-0.727271 1.20335 5.71923 
3.44344 2.25495 10.7374 
1.80549 1.36878 6.46762 
0.388122 1.26517 5.96308 
1.20333 1.39233 6.54779 
-1.82354 1.17543 5.49487 
-1.82354 1.17543 5.49487 
-1.13845 1.18065 5.5145 
0.920925 1.33198 6.2316 
0.935377 1.31412 6.15287 
1.05894 1.33198 6.23332 
3.35756 2.23531 10.5001 
997.012 646.406 3099.78 
-1.14437 1.20662 5.62997 
1.03645 1.33588 6.24095 
-1.24147 1.20344 5.6047 
-0.679396 1.2252 5.7095 
-0.679396 1.2252 5.7095 
1.47343 1.76495 8.15454 
1.58458 1.38666 6.43582 
1.07145 1.33773 6.19987 
1.50174 1.38564 6.42662 
-1.8945 1.21999 5.65564 
-0.73325 1.23045 5.69511 
0.440869 1.29555 5.9937 
-1.30632 1.26035 5.82002 
-0.721578 1.23965 5.7252 
0.335704 1.29024 5.95635 
-0.692788 1.24148 5.71317 
-1.5068 1.22347 5.57489 
-1.27119 1.23282 5.62119 
0.320715 1.30252 5.95615 
4.56986 3.04393 13.9706 
-0.22772 1.26945 5.77828 
-0.727264 1.26404 5.72601 
-2406.07 1552.72 8656.5 
1.4557 1.81235 8.11887 
1.39792 1.78172 7.96226 
1.65865 1.87336 8.32895 
0.692672 1.58622 7.07563 
-0.91631 1.53207 6.97912 
4.94328 3.74129 16.648 
3.3648 2.55659 11.1454 
3094.08 2027.84 8943.83 
2015.31 1552.22 6654.08 
6752.26 4427.47 19661.2 
21774.2 20375.3 135764 
-109813 -86366.2 1.21718e+006 
-1.56198 -2.205 9.12991 
-1.54617 -2.21682 9.21744 
-1.51688 -2.01256 8.6786 
-1.69559 -1.14854 5.44406 
-0.833255 -1.17899 5.60909 
-1.19281 -1.15142 5.54512 
-0.88607 -1.15601 5.59922 
-0.88607 -1.15601 5.59922 
-0.8029 -1.15482 5.60437 
0.487385 -1.17598 5.83094 
-1.10627 -1.11864 5.56725 
-1.12507 -1.11141 5.56325 
4.58969 -2.85358 13.6018 
-1.27817 -1.09863 5.52985 
-1.2094 -1.09438 5.54018 
4.63263 -2.91666 14.1101 
-1.2987 -1.08444 5.52921 
-1.03115 -1.08499 5.59073 
-1.33102 -1.06633 5.52319 
-1.33102 -1.06633 5.52319 
-1.33102 -1.06633 5.52319 
-0.757475 -1.08436 5.6333 
-1.28169 -1.05699 5.53586 
-0.778402 -1.06807 5.63954 
-0.778402 -1.06807 5.63954 
-1.08089 -1.02958 5.5834 
1.8356 -1.12381 6.1189 
1.55003 -1.09551 6.07252 
1.79019 -1.10864 6.14665 
-1.18605 -0.994312 5.56433 
-1.04885 -0.992388 5.5894 
0.500539 -1.03421 5.83717 
-1.10127 -0.982829 5.57003 
-1.81264 -0.952067 5.43037 
-0.919 -0.982988 5.61034 
-1.04836 -0.970839 5.60049 
-1.31991 -0.954887 5.52716 
-1.82652 -0.933198 5.41906 
1.62394 -1.02474 6.09901 
-0.929822 -0.934272 5.61682 
-0.929822 -0.934272 5.61682 
-1.3597 -0.908211 5.53171 
-1.30619 -0.910428 5.55069 
-0.914409 -0.923216 5.62112 
0.0512324 -0.945917 5.77466 
1.38243 -0.976777 6.06387 
1.24827 -0.963316 6.03421 
3.67907 -2.78008 16.4689 
-0.9383 -0.888486 5.62316 
-0.9383 -0.888486 5.62316 
1.35818 -0.952862 6.05761 
0.470078 -0.912087 5.83533 
0.470078 -0.912087 5.83533 
-1.10523 -0.866025 5.58231 
-1.03198 -0.868534 5.60156 
-1.03198 -0.868534 5.60156 
1.24595 -0.912491 6.03736 
-1.18192 -0.839777 5.57303 
1.33593 -0.900187 6.04086 
0.255587 -0.856375 5.80296 
0.314054 -0.860175 5.82521 
1.16815 -0.888443 6.02899 
4.43975 -3.68914 23.6974 
0.0650289 -0.837862 5.78934 
1.23034 -0.862253 6.01075 
-0.0793895 -0.827183 5.78026 
-1.26422 -0.789528 5.56831 
-1.18271 -0.787175 5.56887 
-1.18271 -0.787175 5.56887 
-1.18271 -0.787175 5.56887 
-1.05488 -0.791582 5.60095 
-1.05488 -0.791582 5.60095 
-0.96809 -0.792584 5.60712 
-0.459601 -0.802092 5.71407 
1.17883 -0.850686 6.03248 
0.0639517 -0.811673 5.78506 
-0.548961 -0.796424 5.69319 
0.914239 -0.8338 5.97777 
-1.27081 -0.7622 5.55003 
-0.468543 -0.773336 5.71354 
-0.524138 -0.76881 5.70007 
0.98384 -0.804208 5.97758 
-0.95826 -0.753299 5.6232 
-0.2212 -0.772176 5.75538 
-0.033979 -0.76655 5.76795 
-0.155263 -0.759414 5.76288 
-0.155263 -0.759414 5.76288 
-1.08836 -0.730378 5.60266 
-0.780771 -0.736614 5.66121 
-0.626362 -0.734773 5.64898 
0.496618 -0.764586 5.87066 
-1.44594 -0.717075 5.52218 
0.889116 -0.768106 5.95034 
-1.71106 -0.704855 5.47983 
-1.71106 -0.704855 5.47983 
-0.896198 -0.722308 5.62045 
-1.10542 -0.71569 5.60986 
-1.72337 -0.695686 5.4627 
0.811952 -0.74113 5.92935 
0.885349 -0.745916 5.96779 
-0.416789 -0.715731 5.7344 
-0.120162 -0.711513 5.71647 
-1.00893 -0.693484 5.6234 
-0.951706 -0.693667 5.63332 
-0.762935 -0.697754 5.65746 
-1.66733 -0.668402 5.49641 
0.740661 -0.714851 5.91149 
-0.193201 -0.692887 5.76306 
-0.693295 -0.678974 5.6836 
0.706734 -0.587601 5.01833 
-1.33384 -0.660622 5.55027 
0.678711 -0.691963 5.89376 
-0.273095 -0.672659 5.74899 
0.627752 -0.67352 5.88973 
-0.832674 -0.644775 5.65226 
0.0248311 -0.660097 5.79663 
0.223445 -0.660304 5.78861 
0.356761 -0.671242 5.88858 
-1.65143 -0.62371 5.49141 
-0.658342 -0.644005 5.67389 
-1.24769 -0.625382 5.57575 
-0.549958 -0.636966 5.69392 
0.579314 -0.656456 5.88588 
-0.89569 -0.628257 5.65252 
0.494952 -0.646308 5.87103 
-0.718 -0.625771 5.70395 
-1.1812 -0.6085 5.59071 
0.582902 -0.632545 5.83338 
-0.588758 -0.607074 5.70674 
0.0235787 -0.616113 5.7957 
0.0235787 -0.616113 5.7957 
0.298642 -0.610412 5.7837 
-0.661148 -0.597194 5.68623 
0.0427541 -0.6073 5.80464 
-1.57009 -0.568894 5.51015 
-1.70339 -0.565252 5.48754 
-0.808915 -0.585554 5.67475 
-0.927799 -0.567675 5.64619 
-0.690153 -0.57285 5.68291 
-1.61194 -0.546981 5.49498 
-0.711247 -0.562599 5.67683 
-0.711247 -0.562599 5.67683 
-1.78871 -0.531502 5.46875 
-0.0316341 -0.564773 5.80378 
-0.0316341 -0.564773 5.80378 
-0.730533 -0.55056 5.68259 
-0.662079 -0.549656 5.6984 
-0.662079 -0.549656 5.6984 
-1.47891 -0.522673 5.5041 
-1.31512 -0.517571 5.57047 
-1.24139 -0.514993 5.59237 
-0.513038 -0.524301 5.72307 
-0.513038 -0.524301 5.72307 
1.55774 -0.567952 6.17601 
-0.695342 -0.521369 5.69476 
0.537279 -0.532353 5.88205 
0.223315 -0.524964 5.82194 
-1.6951 -0.487904 5.48614 
-1.63872 -0.487141 5.4893 
-0.661713 -0.504558 5.6917 
-0.479253 -0.505472 5.73059 
-1.08587 -0.49552 5.62294 
-0.583627 -0.500523 5.71487 
-0.583627 -0.500523 5.71487 
-1.32679 -0.478196 5.5623 
0.179634 -0.501347 5.82544 
-1.65571 -0.471767 5.5304 
0.488552 -0.487373 5.84683 
-1.40661 -0.453272 5.52951 
-0.7238 -0.462918 5.61587 
-1.10436 -0.460381 5.61814 
-0.137225 -0.470964 5.80595 
-1.25446 -0.451599 5.59024 
-1.55085 -0.438923 5.51947 
-0.41743 -0.449913 5.74169 
-0.545488 -0.444907 5.72301 
-0.262217 -0.445525 5.76525 
-0.262217 -0.445525 5.76525 
0.490064 -0.452976 5.86617 
1.65453 -0.459725 6.20303 
-1.39819 -0.407379 5.54405 
-0.182263 -0.427017 5.79236 
0.548539 -0.417285 5.78712 
0.231349 -0.418062 5.83124 
0.487991 -0.408942 5.84701 
-0.0808153 -0.395189 5.79406 
0.471155 -0.399759 5.89322 
-1.41721 -0.376582 5.55181 
1.6681 -0.422142 6.20999 
-0.398351 -0.383689 5.75396 
1.03371 -0.400897 6.02652 
-0.916937 -0.3681 5.65419 
-0.0434607 -0.377443 5.81077 
-0.0689433 -0.372932 5.79795 
-0.209406 -0.366812 5.79617 
-0.123324 -0.360032 5.78802 
-1.83426 -0.338334 5.46304 
-0.682998 -0.347398 5.70398 
-0.0452766 -0.348435 5.81619 
-0.0452766 -0.348435 5.81619 
0.103459 -0.334792 5.82226 
0.485346 -0.333011 5.83484 
-0.560084 -0.326561 5.74329 
-0.311521 -0.31946 5.71535 
0.0218161 -0.326953 5.82499 
0.0550745 -0.327156 5.83444 
-0.525264 -0.320656 5.73486 
-0.721254 -0.30682 5.70003 
0.35317 -0.314632 5.86019 
0.35317 -0.314632 5.86019 
-0.25485 -0.298265 5.78668 
-1.83659 -0.280445 5.4678 
-1.83659 -0.280445 5.4678 
0.940582 -0.306366 6.02352 
0.940582 -0.306366 6.02352 
0.488753 -0.294288 5.87992 
1.09758 -0.305652 6.07196 
1.09758 -0.305652 6.07196 
-0.400544 -0.278308 5.7828 
0.372704 -0.282772 5.85591 
0.961746 -0.282645 6.03701 
1.03738 -0.281328 6.05985 
1.03738 -0.281328 6.05985 
1.11558 -0.271075 6.06335 
0.407564 -0.257319 5.8681 
0.465181 -0.237795 5.81734 
0.88572 -0.243106 5.98003 
-0.727009 -0.221188 5.70955 
-0.566221 -0.224783 5.74805 
0.858373 -0.107457 4.08749 
0.344722 -0.214984 5.91957 
-0.35067 -0.203465 5.74889 
1.56023 -0.223333 6.21961 
-0.0426486 -0.193142 5.81011 
1.42686 -0.208509 6.15535 
1.52726 -0.204926 6.21432 
-0.726866 -0.182055 5.70807 
0.491719 -0.187032 5.91733 
0.434809 -0.181752 5.85746 
-0.273352 -0.1701 5.74297 
-1.09233 -0.159192 5.59998 
0.468265 -0.161446 5.85195 
0.494844 -0.150915 5.95086 
1.03819 -0.155251 6.07992 
1.03819 -0.155251 6.07992 
0.949236 -0.143204 6.05645 
1.12834 -0.142896 6.14334 
1.12834 -0.142896 6.14334 
0.887442 -0.134752 5.99007 
-0.54114 -0.12609 5.72953 
-0.343332 -0.124167 5.79711 
1.02388 -0.13284 6.08982 
0.206069 -0.121078 5.84887 
-0.356659 -0.108061 5.78639 
-0.306291 -0.098846 5.78754 
0.074932 -0.10006 5.82863 
-0.727094 -0.094156 5.70886 
-0.727094 -0.094156 5.70886 
-0.463051 -0.0960092 5.7968 
-0.479282 -0.0915907 5.70388 
-19799.3 15534.3 -232554 
-0.385883 -0.090834 5.77319 
-0.0326859 -0.091958 5.83304 
-0.117589 -0.0725244 5.82264 
0.127979 -0.0758354 5.84838 
0.535668 -0.0755583 5.90155 
0.535668 -0.0755583 5.90155 
0.0258366 -0.0720202 5.81216 
-1.76911 -0.0494644 5.46165 
1.38062 -0.0667472 6.32508 
0.22851 -0.0522936 5.83892 
1.39371 -0.0536043 6.20897 
-1.83255 -0.0418941 5.47494 
-1.83255 -0.0418941 5.47494 
-0.517005 -0.0401439 5.754 
-0.24105 -0.0404058 5.80082 
-0.00574085 -0.0407859 5.81954 
1.57706 -0.0485459 6.29837 
-1.00258 -0.0349038 5.65439 
-0.350519 -0.035328 5.78736 
-0.377354 -0.0321944 5.73575 
0.0981005 -0.0284462 5.87458 
0.0981005 -0.0284462 5.87458 
0.103184 -0.0218016 5.42065 
0.103184 -0.0218016 5.42065 
0.492089 -0.0273846 5.95378 
0.955431 -0.0237815 6.10853 
-0.725879 -0.0182385 5.7026 
-0.725879 -0.0182385 5.7026 
0.0197912 -0.0189168 5.80887 
-0.292038 -0.0160921 5.77256 
-0.22225 -0.0162301 5.79781 
0.895786 -0.0200517 6.07977 
-0.0365037 -0.00192178 5.82411 
0.0494185 -0.000988896 5.86748 
-0.428351 0.00397086 5.76671 
0.19658 0.00259753 5.88189 
-0.468659 0.00735001 5.76856 
0.00747499 0.00719375 5.82689 
0.408783 0.0143506 5.84735 
-0.786028 0.021745 5.72893 
-0.727798 0.0232554 5.70886 
-0.280757 0.0337258 5.73715 
-0.0335817 0.0344925 5.85078 
0.459738 0.0351879 5.85142 
-1.03726 0.0436736 5.63757 
-0.139915 0.0594243 5.80153 
1.25737 0.0668387 6.20374 
0.975681 0.070459 6.16058 
0.975681 0.070459 6.16058 
0.975681 0.070459 6.16058 
-0.0344817 0.0723061 5.73985 
-0.616579 0.0805156 5.73302 
-0.690496 0.0908285 5.7254 
1.05368 0.0979686 6.20025 
1.05368 0.0979686 6.20025 
-0.639272 0.102761 5.72976 
-0.158729 0.10994 5.78258 
-0.0311185 0.11178 5.84103 
1.57661 0.129013 6.32373 
0.765514 0.132477 6.33583 
1.13769 0.127203 6.23521 
1.13769 0.127203 6.23521 
1.53579 0.142026 6.29743 
-0.602501 0.134584 5.73345 
0.0433747 0.137917 5.84207 
0.219923 0.142928 5.57661 
-1.83068 0.153503 5.4858 
-1.83068 0.153503 5.4858 
0.0321602 0.164373 5.8824 
-1.84521 0.166999 5.47159 
0.847524 0.178255 6.01149 
0.984451 0.191148 6.22626 
0.984451 0.191148 6.22626 
0.984451 0.191148 6.22626 
-0.47316 0.184787 5.73018 
-0.47316 0.184787 5.73018 
-0.403999 0.185801 5.76534 
-0.403999 0.185801 5.76534 
-0.403999 0.185801 5.76534 
0.894898 0.198185 6.08867 
-0.18511 0.195113 5.81155 
-0.0667777 0.193057 5.81114 
-0.0667777 0.193057 5.81114 
0.738765 0.207297 6.15204 
0.738765 0.207297 6.15204 
-0.146146 0.203857 5.80134 
0.24011 0.202652 5.76997 
0.973135 0.215241 6.24395 
-0.308891 0.205997 5.81872 
1.06091 0.223786 6.26101 
1.06091 0.223786 6.26101 
-1.16954 0.207203 5.63768 
-1.12194 0.208908 5.65164 
-0.375709 0.212073 5.78541 
-1.40811 0.20716 5.57535 
-0.413991 0.222598 5.7801 
0.776759 0.23958 6.24785 
-1.39162 0.21962 5.58541 
-0.449404 0.226757 5.79118 
-0.0635839 0.230707 5.81075 
-0.0635839 0.230707 5.81075 
1.87525 0.392715 11.3638 
0.760658 0.2644 6.24931 
0.760658 0.2644 6.24931 
1.14813 0.265835 6.30765 
-1.16994 0.245227 5.62437 
-0.455179 0.257486 5.75435 
0.473268 0.266385 5.93373 
-1.80146 0.254961 5.49548 
0.226532 0.264807 5.71781 
-0.709483 0.280476 5.72335 
1.58469 0.309258 6.37146 
-0.964887 0.287106 5.67599 
-0.964887 0.287106 5.67599 
-0.569951 0.291846 5.73608 
0.996339 0.317808 6.32452 
0.904419 0.323484 6.36494 
0.904419 0.323484 6.36494 
0.343086 0.292673 5.61973 
-1.41547 0.295005 5.57356 
0.192639 0.308969 5.71026 
0.192639 0.308969 5.71026 
0.227867 0.315702 5.77137 
-0.464664 0.320045 5.7473 
-0.106402 0.326083 5.806 
1.24163 0.356997 6.33212 
-1.45408 0.317891 5.58031 
-1.25307 0.320365 5.60533 
-0.416531 0.328929 5.73295 
-1.31248 0.333391 5.60001 
-1.49187 0.336683 5.56643 
0.812825 0.372145 6.47924 
-1.15295 0.341484 5.6357 
-0.770441 0.353671 5.88893 
0.878853 0.40653 6.4564 
1.33693 0.404879 6.37164 
-1.45943 0.356367 5.57563 
-1.10835 0.363195 5.64221 
-1.17865 0.369681 5.62769 
-1.17865 0.369681 5.62769 
-1.41406 0.368817 5.57395 
1.01576 0.422144 6.37994 
1.38121 0.41972 6.39368 
-1.47643 0.375585 5.56412 
1.17147 0.439407 6.48225 
15.0472 4.14296 68.3759 
-1.23218 0.384989 5.62204 
-0.719757 0.420686 5.71652 
-0.719757 0.420686 5.71652 
-0.63818 0.418349 5.71577 
-1.47684 0.412256 5.57035 
1.07085 0.479307 6.46707 
-0.566349 0.431899 5.73145 
-0.960092 0.429723 5.64867 
1.27169 0.492015 6.42335 
1.59577 0.491242 6.43108 
1.59577 0.491242 6.43108 
-0.939211 0.449717 5.67153 
-1.14617 0.449673 5.64128 
1.55365 0.500051 6.32669 
-1.51519 0.446044 5.55132 
1.25359 0.512513 6.32875 
-1.25976 0.459759 5.61792 
-0.792196 0.463357 5.67448 
-0.992524 0.471503 5.67392 
-0.503262 0.488312 5.74369 
0.76208 0.653921 7.69526 
1.51753 0.588153 6.94534 
-0.980085 0.494153 5.73141 
-0.762149 0.492502 5.70924 
1.31896 0.550629 6.40527 
0.375601 0.501706 5.6657 
-1.15542 0.509459 5.63215 
0.110926 0.518499 5.7862 
-0.94696 0.517948 5.66874 
-1.38652 0.517529 5.57518 
-1.46512 0.519965 5.56521 
-1.46512 0.519965 5.56521 
-1.46512 0.519965 5.56521 
0.071252 0.539108 5.74918 
0.071252 0.539108 5.74918 
-0.903954 0.538876 5.68095 
-0.903954 0.538876 5.68095 
-1.27678 0.535568 5.6023 
-1.11094 0.547107 5.61606 
1.07315 0.619757 6.37418 
-1.65771 0.544015 5.54039 
-1.16855 0.550262 5.62686 
-1.70912 0.547198 5.51487 
0.030334 0.574992 5.81076 
0.627841 0.622834 6.24281 
1.30149 0.637371 6.41259 
1.27865 0.641711 6.43951 
-1.35193 0.572135 5.59718 
-1.22154 0.576825 5.619 
1.27862 0.65303 6.37894 
1.27862 0.65303 6.37894 
-1.4432 0.579405 5.56924 
-1.51016 0.59061 5.58186 
0.225072 0.602502 5.69972 
-1.73844 0.588372 5.51654 
1.79102 0.694771 6.49603 
-0.724891 0.614258 5.72885 
-1.12482 0.610566 5.63932 
-0.549054 0.623172 5.74291 
-1.83845 0.604217 5.50101 
-1.30567 0.616748 5.61195 
-0.862983 0.627526 5.68643 
-1.44071 0.615533 5.56963 
0.115024 0.642976 5.7854 
-1.76209 0.615882 5.49689 
-0.520945 0.642241 5.73164 
-0.520945 0.642241 5.73164 
1.7314 0.722037 6.46515 
0.728663 0.718441 6.3082 
0.194464 0.173513 1.5996 
1.04481 0.721498 6.38819 
1.76825 0.713492 6.32436 
-1.66269 0.628175 5.53343 
-1.1994 0.64047 5.62974 
-1.15756 0.646588 5.62353 
0.492959 0.708749 6.04318 
-0.923095 0.673509 5.67153 
0.602624 0.742253 6.25825 
0.280218 0.706778 5.96094 
-1.61794 0.663528 5.54015 
-1.83204 0.664444 5.49272 
0.679264 0.757008 6.22551 
1.93491 0.79378 6.5398 
1.46275 0.79346 6.43838 
-1.86164 0.686406 5.49188 
-1.38287 0.696193 5.58916 
-0.541157 0.71685 5.753 
0.545692 0.765219 6.03346 
-0.737922 0.727166 5.70155 
0.242241 0.757977 5.83068 
-0.552362 0.748722 5.71719 
-0.621698 0.752199 5.72147 
-0.621698 0.752199 5.72147 
0.513839 0.792072 6.01305 
1.13693 0.842772 6.40212 
-1.67664 0.746711 5.54557 
0.201208 0.797172 5.94686 
0.159212 0.790852 5.84459 
0.973237 0.863283 6.33488 
