ply
format ascii 1.0
element vertex 988
property float x
property float y
property float z
end_header
-0.331962 -0.279298 1.05199 
0.526109 -2.8966 12.1802 
0.543577 -2.79568 11.8867 
-0.0644023 -0.0459461 0.189338 
-0.0664289 -0.0470225 0.195966 
2.31355 -3.03926 14.0466 
1.42093 -2.6818 12.8098 
1.42093 -2.6818 12.8098 
-0.330877 -2.02494 10.0151 
0.692559 -2.34403 11.8467 
0.0295196 -2.10618 10.6989 
0.596372 -2.25385 11.6434 
0.0547747 -2.01538 10.6078 
-0.695844 -1.65107 8.74439 
-1.00957 -1.3662 7.60668 
-1.00957 -1.3662 7.60668 
-0.155466 -1.76393 9.72639 
1.91782 -2.41068 13.7041 
-0.97482 -1.217 7.14629 
2.94964 -2.41379 14.2452 
-0.148381 -0.0887082 0.478397 
-0.20901 -0.11692 0.679951 
0.0740847 -1.44862 9.36313 
2.7995 -2.11145 14.2143 
-0.980238 -0.53152 3.55879 
1.63239 -1.79345 12.4005 
2.91631 -2.05557 14.2177 
2.25385 -1.8955 13.3964 
-0.886981 -0.936272 6.67733 
-0.762677 -1.0728 7.77912 
-1.02313 -0.702771 5.14788 
-0.144663 -0.0727073 0.469243 
-1.03719 -0.8336 6.25518 
-1.08229 -0.643031 4.98455 
-0.32216 -0.150262 1.07558 
0.56958 -1.4286 11.141 
-1.06632 -0.636552 5.03476 
-0.147011 -0.0692093 0.476969 
-0.0965154 -0.0469475 0.315163 
2.62734 -1.75298 14.045 
-0.125 -0.0561863 0.39252 
-1.07434 -0.598338 4.88434 
-0.374465 -1.07384 8.79705 
3.80723 -1.78664 14.7935 
-0.0255929 -0.00853033 0.0617558 
-0.368971 -1.0386 8.74764 
0.784694 -1.30432 11.5056 
-0.37364 -0.972788 8.66935 
1.51228 -1.40231 12.5177 
1.7283 -1.34833 12.743 
2.12156 -1.37572 13.0958 
-0.528784 -0.644556 6.11891 
-0.528784 -0.644556 6.11891 
0.60871 -1.14006 11.7249 
2.25063 -1.34064 13.6363 
-0.75277 -0.630155 6.4952 
-0.111851 -0.894122 9.15474 
-0.294589 -0.856065 8.98572 
0.0417207 -0.892344 9.52573 
0.936805 -1.08018 11.6222 
0.173374 -0.965384 10.3986 
-0.639192 -0.205009 2.18701 
0.374551 -0.774332 9.04313 
0.852799 -0.836046 11.4927 
3.30727 -1.06081 14.7679 
-0.289768 -0.610588 8.97752 
4.12618 -0.71129 10.8173 
0.491694 -0.628382 10.6341 
-0.261522 -0.0738245 1.35119 
-0.813548 -0.22637 4.45125 
-0.835627 -0.198079 4.19802 
-0.72602 -0.279429 6.38264 
3.64734 -0.650343 14.5324 
1.13014 -0.494153 11.6298 
-0.647614 -0.322246 7.69831 
-0.19965 -0.0312239 0.917555 
-0.197288 -0.0267098 1.05597 
-0.264341 -0.0322251 1.36317 
-0.0933303 -0.0108568 0.299736 
-0.188787 -0.0217453 1.01759 
-0.126398 -0.0130328 0.412449 
-0.188552 -0.0195614 0.96851 
-0.0930641 -0.022753 1.41047 
-0.0742588 -0.01615 1.24812 
-0.132396 -0.0320591 2.50332 
-0.0742588 -0.01615 1.24812 
-0.169312 -0.0115046 0.782522 
1.92272 -0.168447 13.0645 
-0.0136605 -0.000841298 0.0340726 
-0.173039 -0.00666824 0.885003 
0.663064 -0.0702424 10.4733 
-0.153898 0.00219504 0.749766 
3.02352 0.0632005 14.0486 
3.02352 0.0632005 14.0486 
-0.154155 0.00644021 0.74098 
-0.671914 0.0443869 6.06412 
0.823125 0.0784476 11.0995 
-0.139074 0.00681263 0.5884 
-0.0138525 0.000266691 0.0358107 
3.82251 0.368909 15.4383 
-0.0114772 0.000604058 0.0341503 
-0.0490673 0.0358141 1.03042 
1.09187 0.360198 11.7897 
-0.0131334 0.00100689 0.0408438 
2.01553 0.50141 12.8852 
-0.0160129 0.00130723 0.0516101 
-0.0256591 0.333277 9.63264 
-0.0337328 0.126002 3.31776 
2.08806 0.450135 13.146 
2.31335 0.474283 13.3651 
2.36816 0.494419 13.3964 
-0.114311 0.0272855 0.610919 
2.39702 0.552656 13.5407 
2.60052 0.55077 13.5849 
-0.774315 0.173797 4.04075 
-0.0776478 0.0110305 0.263222 
-0.0990459 0.0772484 1.32703 
1.51173 0.64421 12.4496 
1.51173 0.64421 12.4496 
1.51173 0.64421 12.4496 
1.71468 0.648196 12.7228 
4.0786 0.690743 14.173 
-0.302436 0.0657778 1.10523 
-0.412047 0.101209 1.56387 
-0.32735 0.0804193 1.21069 
-0.761053 0.264042 3.57108 
2.72165 1.03885 13.739 
-0.596841 0.549197 6.98574 
-0.721749 0.680299 8.88613 
-0.0104585 0.0020023 0.0271607 
3.6439 1.14342 14.5975 
1.42586 1.05548 12.371 
1.42586 1.05548 12.371 
2.2212 1.1449 13.3383 
-0.715138 0.540866 6.01063 
3.52196 1.28355 14.6936 
-0.759521 0.378848 3.96885 
-0.608977 0.523232 5.35298 
-0.111901 0.040823 0.395779 
-0.714208 0.330616 3.12996 
-0.262344 0.0993874 0.944364 
-0.427564 0.189652 1.71332 
-0.155764 0.0824586 0.669223 
-0.0311029 0.0125789 0.108155 
-0.501695 0.817238 6.92404 
-0.624054 0.854568 7.38345 
3.04391 1.63957 14.3667 
-0.615646 0.385511 3.13768 
4.26949 1.85614 15.6939 
2.38929 1.59258 13.4774 
-0.13478 0.0614998 0.490282 
-0.290964 1.11298 8.87875 
-0.538689 0.301301 2.25649 
-0.709347 0.883459 6.66473 
-0.365572 1.11261 8.33583 
1.05901 1.62678 11.9186 
1.11913 1.84017 12.0722 
-0.616254 1.30834 8.38566 
-0.582897 1.21224 7.66548 
-0.616254 1.30834 8.38566 
-0.582897 1.21224 7.66548 
1.64498 2.08277 12.8517 
-0.293167 0.203357 1.17676 
1.18114 2.12788 13.4172 
1.3173 2.18536 12.3036 
2.32263 2.25263 13.6414 
4.39243 2.71679 15.755 
2.39447 2.5448 14.2619 
1.33111 2.30253 12.6395 
1.33111 2.30253 12.6395 
1.19501 2.16113 11.6676 
1.33111 2.30253 12.6395 
4.17883 2.76981 15.563 
4.17883 2.76981 15.563 
1.28827 2.21744 12.0617 
1.05089 2.19993 12.0544 
3.39197 2.98563 15.7693 
-0.500617 0.445038 2.26854 
-0.388951 1.64054 8.7219 
3.77359 3.17894 16.3074 
-0.51731 1.66279 8.6701 
2.03386 2.66911 13.769 
0.205719 2.24637 11.801 
-0.0261891 0.0176508 0.0863501 
-0.0216918 0.0145006 0.0688919 
2.97459 2.95445 14.4917 
0.928985 2.59567 12.1311 
0.0947401 2.12058 9.03317 
0.0715221 2.20173 9.06566 
-0.156364 2.06007 8.8548 
-0.0268261 2.2749 9.60421 
-0.890545 1.57221 6.67546 
-0.347963 2.19713 9.34526 
-0.819971 1.79782 7.37488 
-0.0601711 0.0774289 0.283741 
-0.0420737 0.0547092 0.20112 
-0.82784 2.01405 8.20071 
2.11557 3.63331 14.2808 
0.248387 2.76873 10.9162 
4.32695 4.20502 16.2121 
6.13667 4.59998 17.4611 
-0.67529 2.24257 8.33225 
5.76561 4.6512 17.0389 
4.72951 3.72425 14.2721 
5.71354 4.70474 17.0026 
-0.125235 -0.103034 0.381632 
0.995109 -2.86455 12.6696 
0.967288 -2.62047 12.3646 
0.89479 -2.46918 12.216 
2.08816 -2.74695 13.6143 
-1.1524 -0.862629 4.29753 
-0.424933 -1.79762 8.84847 
-0.418377 -1.92742 9.61981 
0.0382319 -2.05914 10.664 
2.63156 -2.67657 14.0346 
-0.738379 -1.58827 8.58519 
2.14051 -2.29509 13.2327 
2.11616 -2.3831 13.8344 
1.97144 -2.28434 13.6119 
-0.097576 -0.0554565 0.311771 
2.17386 -2.05009 13.4499 
-1.10549 -0.875734 5.82315 
1.23969 -1.7579 11.9853 
2.87249 -2.08942 14.1535 
3.64814 -2.09964 14.815 
-1.04838 -0.721335 5.1757 
3.6647 -2.03354 14.8679 
2.02533 -1.62792 13.1015 
-0.259439 -1.1122 9.46174 
-0.96128 -0.743495 6.3015 
0.588061 -1.2988 11.1911 
-0.352551 -1.01579 8.8253 
1.87041 -1.45479 12.7876 
-0.41235 -0.933664 8.54984 
2.24916 -1.43774 13.2946 
-0.982229 -0.542506 5.05285 
-0.316358 -0.948797 8.86019 
-0.977504 -0.597989 5.64782 
2.66719 -1.45377 13.7787 
-0.306537 -0.895131 9.01741 
1.23406 -1.1838 12.0308 
-0.105965 -0.243468 2.32564 
-0.92921 -0.56931 6.22518 
2.49242 -1.2277 13.8967 
-0.736838 -0.558465 6.45209 
-0.113215 -0.180556 2.02116 
-0.911913 -0.456913 5.52171 
1.76569 -1.00034 12.6611 
0.713174 -0.727079 9.24382 
1.76501 -0.943459 12.7447 
3.18757 -1.05263 14.7515 
1.2553 -0.828889 12.1408 
-0.0388806 -0.540498 8.49681 
-0.623343 -0.134345 2.18729 
-0.623343 -0.134345 2.18729 
4.22538 -0.904995 15.401 
4.28937 -0.833499 15.3239 
1.45074 -0.645701 12.2758 
1.89844 -0.635646 12.8108 
-0.0558143 -0.448392 9.71286 
2.82536 -0.607022 13.9442 
-0.461583 -0.0783585 2.05529 
0.101553 -0.274213 8.34083 
0.0426497 -0.189761 6.68768 
0.0833128 -0.206154 7.33469 
-0.0145998 -0.00151276 0.0356737 
2.99025 -0.246302 14.7942 
2.0069 -0.204387 13.0843 
-0.0468526 -0.0106993 0.923077 
3.45166 -0.14988 14.7389 
2.90386 -0.0931669 14.6742 
3.48197 -0.0919655 14.6178 
2.87936 -0.0358844 14.6369 
0.395019 -0.0299775 10.8479 
0.395019 -0.0299775 10.8479 
-0.0147204 -0.000436433 0.0369091 
-0.165348 0.00502275 0.931419 
2.60642 0.0557243 13.8889 
-0.0114666 0.00289176 0.391286 
1.87521 0.307175 12.7947 
0.0239054 0.305202 10.0595 
-0.441493 0.0985277 2.74495 
-0.779061 0.164559 4.67831 
-0.747712 0.178636 4.09264 
-0.971257 0.223799 5.49595 
-0.747712 0.178636 4.09264 
4.4271 0.709467 15.6278 
0.716319 0.561628 10.6835 
3.17303 0.753333 14.5854 
-0.268608 0.0514904 0.969762 
0.659414 0.590337 10.6544 
4.45487 0.85216 15.442 
-0.0591534 0.496821 8.86213 
0.715972 0.677789 11.1202 
3.13957 0.913917 14.3468 
-0.499825 0.483967 5.74087 
-0.0103795 0.00213138 0.0268035 
-0.0103795 0.00213138 0.0268035 
3.748 1.24793 14.8843 
-0.0101763 0.00221249 0.0261272 
-0.050745 0.720698 7.6476 
-0.0668924 0.459797 4.43154 
0.00528823 0.786857 8.16168 
0.00528823 0.786857 8.16168 
0.00528823 0.786857 8.16168 
-0.678071 0.284932 2.95077 
-0.678071 0.284932 2.95077 
-0.603025 0.252327 2.59579 
3.7796 1.67686 15.9371 
-0.37116 0.89382 8.27929 
-0.153555 0.0648751 0.558414 
-0.0129571 0.00398116 0.0350906 
4.19162 1.95529 15.3137 
4.19162 1.95529 15.3137 
-0.0196091 0.00838689 0.0640884 
-0.0266834 0.0138269 0.0980983 
-0.0266834 0.0138269 0.0980983 
0.505148 1.54088 11.0123 
0.158936 1.23495 7.88897 
-0.0113759 0.00441491 0.0289328 
-1.01882 0.96918 6.0015 
1.41823 2.29219 12.3525 
1.34375 2.31234 12.7855 
0.0237468 2.00035 8.56647 
0.0237468 2.00035 8.56647 
3.76533 3.49091 16.4135 
4.72064 3.46762 16.4622 
0.0922655 2.11928 9.01409 
0.0922655 2.11928 9.01409 
1.31266 2.89287 13.0855 
1.24576 2.89751 12.9867 
-0.017842 2.19635 8.8493 
0.00411168 2.10284 8.7565 
-0.017842 2.19635 8.8493 
0.00411168 2.10284 8.7565 
-0.101884 2.17555 8.58436 
0.0514768 2.31212 9.25753 
-0.111079 2.23467 9.30898 
-0.0197284 0.0159583 0.0667576 
-0.420661 2.18885 9.44793 
-0.0380867 2.28968 8.98727 
0.0310425 2.46419 10.0765 
-0.710228 1.8412 7.85 
0.104826 2.52864 9.75083 
-0.920272 1.51206 6.3287 
2.27938 3.38081 14.1708 
2.27938 3.38081 14.1708 
-0.749725 1.88257 7.73628 
-0.016661 0.0120224 0.045035 
-0.903319 1.79186 6.65211 
4.59331 4.57533 16.3911 
-1.3208 -1.74918 7.37508 
0.458528 -2.78811 11.847 
-1.03507 -1.87581 8.27966 
-1.31262 -1.48575 6.69255 
-0.484279 -1.78685 9.32928 
-0.329784 -1.79575 9.82185 
1.41128 -2.27514 12.6508 
-0.967235 -1.0314 5.61319 
0.598338 -1.95148 11.4588 
0.598338 -1.95148 11.4588 
1.71075 -2.21335 13.0465 
3.0011 -2.36328 14.2512 
-0.148934 -0.0888351 0.480102 
-0.0980971 -1.52136 9.46426 
-0.0451717 -1.69457 10.8899 
0.0620428 -1.50044 9.4192 
0.167177 -1.53331 9.78836 
0.167177 -1.53331 9.78836 
-1.05709 -0.757421 5.20285 
-1.05709 -0.757421 5.20285 
2.70257 -2.01495 14.1331 
-0.807742 -1.03137 7.39095 
2.45 -1.92805 13.6497 
-0.746695 -1.11476 8.03194 
0.418261 -1.53086 11.0068 
-0.224712 -0.114414 0.735547 
0.86499 -1.65504 12.0182 
-0.498731 -1.10056 8.0891 
-0.25741 -0.125453 0.84733 
0.540057 -1.47231 11.315 
0.540057 -1.47231 11.315 
-0.51088 -1.05052 8.23997 
2.5028 -1.77971 13.8832 
2.5028 -1.77971 13.8832 
-0.876663 -0.802582 6.65274 
-0.920016 -0.765826 6.43123 
-0.0556993 -1.0253 9.57534 
2.1327 -1.33221 13.1343 
-0.891456 -0.59218 5.95855 
-0.290854 -0.815127 8.92557 
1.05408 -1.08326 11.8213 
0.890191 -1.00861 11.4366 
0.754431 -0.824971 11.1827 
-0.763247 -0.213475 2.90748 
0.908131 -0.817719 11.4228 
1.52204 -0.868869 12.4148 
3.50621 -1.04948 15.0808 
-0.786486 -0.440817 6.92526 
1.11232 -0.685598 11.873 
1.83545 -0.715811 12.779 
2.05628 -0.572631 13.0841 
1.80615 -0.553288 12.7246 
-0.503679 -0.267362 7.91495 
2.17453 -0.393352 13.1504 
-0.775901 -0.176097 6.23936 
-0.109337 -0.0264042 1.5279 
-0.0591103 -0.0110728 1.08406 
-0.703562 -0.0213079 5.54219 
-0.714424 0.172148 6.3136 
0.968322 0.316929 11.7683 
0.0667774 0.0498334 1.0184 
0.968322 0.316929 11.7683 
0.729682 0.314786 11.2577 
-0.772869 0.163417 4.64716 
3.6468 0.509846 14.5616 
0.0418676 0.352707 9.90787 
-0.624648 0.243933 6.39351 
-0.624648 0.243933 6.39351 
1.82228 0.503678 12.7153 
3.57114 0.582761 14.7182 
3.62447 0.634631 14.6495 
-0.680052 0.196046 3.5311 
1.28947 0.732825 12.2291 
0.598008 0.68329 10.9856 
-0.241851 0.15884 2.10585 
5.04313 1.08618 16.1532 
-0.283213 0.597874 8.54237 
-0.116405 0.126148 1.38881 
-0.0317155 0.0123092 0.109564 
-0.0317155 0.0123092 0.109564 
-0.273559 0.990151 8.87072 
-0.0243552 0.00961705 0.0818795 
4.09322 2.06229 15.3645 
-0.386178 0.22096 1.54163 
4.1766 2.85415 15.6089 
4.16036 2.83784 15.554 
4.31509 2.93314 15.6444 
-0.759265 1.20485 6.20024 
-0.0215479 0.0137962 0.0682152 
-0.0215479 0.0137962 0.0682152 
-0.0186245 0.014362 0.0604432 
4.35982 3.74376 16.0787 
-0.794067 1.06417 4.42342 
-0.507032 2.13416 8.90042 
-0.0136632 0.00862149 0.0332396 
-0.0145192 0.00974736 0.0369988 
5.83737 4.51749 16.979 
1.00946 3.5938 12.9003 
-0.539507 2.60687 9.29345 
3.17717 -2.99448 11.5254 
1.35766 -2.68433 12.7631 
1.35766 -2.68433 12.7631 
-0.46902 -1.87096 9.3947 
1.87863 -2.6423 13.3037 
3.49862 -2.95491 14.9025 
3.49862 -2.95491 14.9025 
1.74735 -2.56026 13.0801 
2.73387 -2.55414 13.947 
2.73387 -2.55414 13.947 
1.10542 -2.16718 12.3108 
2.93152 -2.45124 14.0915 
0.155392 -1.51345 8.29908 
0.367396 -1.89035 11.1044 
1.33344 -2.1185 12.6095 
0.97109 -1.99103 11.993 
0.97109 -1.99103 11.993 
3.4521 -2.42528 14.7553 
1.15543 -1.96534 12.2201 
1.80423 -2.11136 13.5823 
-0.17012 -0.0967907 0.550126 
2.76645 -2.12289 14.0851 
2.76645 -2.12289 14.0851 
-0.648102 -1.24195 8.35862 
-0.295185 -1.3625 9.46197 
0.939277 -1.72013 11.8815 
0.939277 -1.72013 11.8815 
0.830178 -1.68899 11.6727 
-0.798418 -1.03709 7.64911 
0.519234 -1.50533 11.0889 
2.96581 -1.94211 14.1819 
-0.376217 -0.922084 8.73998 
-0.376217 -0.922084 8.73998 
1.74441 -1.31548 12.7424 
1.74441 -1.31548 12.7424 
1.74441 -1.31548 12.7424 
-0.98145 -0.571351 5.64238 
-0.899797 -0.59592 6.00508 
-1.01294 -0.525787 5.36685 
3.56113 -1.39124 14.6476 
2.58932 -1.30497 14.0475 
0.0779685 -0.916509 10.3182 
0.388527 -0.920629 10.5241 
0.272934 -0.9134 10.5095 
2.84585 -1.18634 13.9616 
-0.855857 -0.493492 5.98099 
0.587856 -0.903813 11.095 
0.587856 -0.903813 11.095 
-0.31453 -0.68212 8.90613 
-0.022046 -0.00497097 0.0556047 
2.88285 -1.0415 14.115 
-0.2752 -0.638508 8.98293 
-0.23046 -0.466227 6.49237 
-0.2752 -0.638508 8.98293 
0.279422 -0.725347 10.4067 
-0.782987 -0.447995 6.67479 
-0.782987 -0.447995 6.67479 
0.438976 -0.722896 10.7975 
-0.318716 -0.582139 8.8395 
0.091952 -0.62673 10.1242 
0.091952 -0.62673 10.1242 
0.091952 -0.62673 10.1242 
-0.279498 -0.551507 9.03965 
-0.279498 -0.551507 9.03965 
-0.640615 -0.133959 2.28182 
0.339561 -0.571633 10.6603 
1.9204 -0.567872 12.7559 
1.9204 -0.567872 12.7559 
-0.0490566 -0.342703 8.29352 
-0.0424662 -0.410962 10.0121 
1.49974 -0.498378 12.4237 
1.49974 -0.498378 12.4237 
2.82038 -0.524675 13.7981 
-0.799828 -0.197296 5.80428 
1.675 -0.419311 12.701 
1.675 -0.419311 12.701 
1.675 -0.419311 12.701 
1.30719 -0.37372 12.0228 
-0.123825 -0.0139909 0.389357 
-0.172458 -0.0168448 0.950234 
0.370379 -0.0818328 11.3259 
2.21671 -0.0747486 13.1323 
0.369566 -0.00607802 10.621 
0.449367 0.0615299 10.8528 
0.894114 0.088373 11.253 
0.894114 0.088373 11.253 
0.333857 0.245346 11.004 
0.640808 0.267533 11.295 
0.640808 0.267533 11.295 
-0.818607 0.125335 4.42595 
1.17342 0.323099 11.9986 
1.91541 0.366122 12.7666 
2.67627 0.390196 13.5515 
2.67627 0.390196 13.5515 
2.67627 0.390196 13.5515 
2.67627 0.390196 13.5515 
2.67627 0.390196 13.5515 
0.912123 0.399111 11.5962 
1.75771 0.446798 12.737 
1.75771 0.446798 12.737 
1.26031 0.430144 12.0414 
-0.761472 0.185013 4.52083 
1.96884 0.517251 12.9334 
-0.764296 0.204679 4.15158 
-0.716276 0.187818 3.85815 
0.340077 0.520503 10.4782 
0.341712 0.521995 10.5155 
0.341712 0.521995 10.5155 
0.340077 0.520503 10.4782 
1.73864 0.656864 12.7516 
-0.393731 0.0807261 1.47385 
-0.0236583 0.00444372 0.0914843 
1.43427 0.657809 12.3954 
1.43427 0.657809 12.3954 
1.43427 0.657809 12.3954 
-0.792009 0.30593 5.523 
2.10258 0.761635 13.164 
-0.646578 0.421481 6.8295 
-0.376496 0.0929013 1.41025 
-0.581031 0.467353 6.65791 
1.26269 0.892158 12.1409 
0.667669 0.896369 11.1238 
-0.815729 0.4704 4.77633 
-0.815729 0.4704 4.77633 
-0.815729 0.4704 4.77633 
-0.815729 0.4704 4.77633 
-0.815729 0.4704 4.77633 
-0.815729 0.4704 4.77633 
0.857158 1.23368 11.6335 
-0.787264 0.571238 5.27605 
-0.031759 0.0131012 0.109687 
-0.279761 1.04264 8.87658 
0.91408 1.40617 11.737 
-0.630806 0.879137 7.2271 
0.712415 1.40002 11.3472 
0.447275 1.1567 8.24786 
1.07479 1.60469 11.973 
1.07479 1.60469 11.973 
1.07479 1.60469 11.973 
-0.45864 1.18853 8.31031 
1.33426 2.00928 11.5098 
-0.446979 1.29473 8.39684 
-0.446979 1.29473 8.39684 
0.479188 1.69857 10.8847 
-0.0326109 0.0210389 0.124245 
-0.264406 1.7723 9.33431 
0.0132587 2.22816 9.25081 
-0.38844 2.08441 9.24338 
1.48632 3.11146 13.1432 
1.97393 3.51288 14.0661 
-0.0166433 0.0118508 0.0452703 
-0.540797 2.2573 8.79442 
-0.0139618 0.00917878 0.0342746 
-1.21192 -2.14401 8.56737 
-1.13652 -2.06844 8.45907 
-1.13652 -2.06844 8.45907 
-1.13652 -2.06844 8.45907 
0.396937 -2.49404 11.5252 
2.12824 -2.83539 13.6308 
2.12824 -2.83539 13.6308 
0.323236 -2.30014 11.3406 
2.75844 -2.83765 13.9564 
-0.340828 -1.99371 9.95961 
-0.340828 -1.99371 9.95961 
0.645236 -2.33917 11.765 
0.489989 -2.26429 11.5195 
2.79984 -2.79149 14.3047 
0.858448 -2.3999 12.3789 
2.0366 -2.51966 13.3977 
-0.389829 -1.78539 9.64554 
1.5076 -2.34459 12.7916 
1.5076 -2.34459 12.7916 
1.5076 -2.34459 12.7916 
-0.320822 -1.6821 9.55375 
0.499827 -2.00928 11.3735 
0.499827 -2.00928 11.3735 
1.35536 -2.21672 12.6549 
1.35536 -2.21672 12.6549 
2.76054 -2.34672 14.0035 
-0.11773 -0.0715906 0.376637 
0.633008 -1.90747 11.6652 
0.854652 -1.82616 11.715 
0.854652 -1.82616 11.715 
1.13204 -1.80529 12.1365 
0.0743753 -1.3455 9.22429 
2.85717 -1.84988 13.9863 
0.826066 -1.45077 11.4124 
3.70149 -1.77347 14.6867 
-0.326781 -1.08258 9.34678 
0.417147 -1.1695 10.2409 
1.15969 -1.33777 12.0477 
2.34139 -1.47959 13.57 
0.607139 -0.992561 10.9809 
0.607139 -0.992561 10.9809 
0.607139 -0.992561 10.9809 
-0.359701 -0.616733 8.61458 
-0.359701 -0.616733 8.61458 
2.74029 -0.907567 13.7182 
2.74029 -0.907567 13.7182 
0.87883 -0.275154 4.91542 
2.74029 -0.907567 13.7182 
0.530478 -0.688431 10.7736 
-0.0213027 -0.00423705 0.0541219 
-0.0213027 -0.00423705 0.0541219 
0.344397 -0.661885 10.6378 
1.19904 -0.738711 11.9939 
-0.69208 -0.147854 2.54459 
3.55498 -0.85504 14.6693 
-0.84826 -0.262121 4.52873 
0.429654 -0.606733 10.7161 
1.72145 -0.691596 12.5931 
0.0627277 -0.498573 9.32284 
3.10197 -0.741049 14.2443 
-0.730843 -0.281164 6.28376 
-0.0279592 -0.0226188 0.464718 
-0.274919 -0.189669 4.58517 
0.0772919 -0.337569 8.33265 
0.102177 -0.387652 9.64466 
1.36882 -0.46624 12.164 
-0.207234 -0.0311849 0.990183 
0.309122 -0.326948 10.8947 
3.56442 -0.216895 14.6472 
-0.0481315 -0.00387894 0.906678 
0.949187 -0.07861 11.615 
1.02658 -0.0755707 12.381 
0.210796 0.120171 8.7369 
0.599923 0.172938 11.0051 
2.23744 0.33401 13.198 
-0.797215 0.132371 4.76161 
-0.797215 0.132371 4.76161 
-0.797215 0.132371 4.76161 
0.850339 0.334619 11.5803 
-0.738783 0.109137 3.2669 
2.29398 0.429524 13.2998 
-0.785865 0.152422 4.10386 
-0.0358985 0.381155 9.06215 
-0.00989658 0.0288592 0.54076 
2.79447 0.583438 14.123 
-0.284135 0.0411201 1.00646 
1.22531 0.70641 12.0785 
1.6653 0.740009 12.6528 
0.317165 0.643951 10.4914 
1.81467 0.798669 12.9977 
2.22633 0.824217 13.3457 
-0.269227 0.545875 8.64323 
1.30972 0.812489 12.1473 
2.41846 0.899617 13.271 
-0.74239 0.237811 3.38776 
-0.551446 0.522494 7.10197 
-0.0744479 0.0673576 0.767579 
-0.275625 0.652765 8.52939 
-0.275625 0.652765 8.52939 
1.84816 1.01922 12.7156 
3.79892 1.17107 14.8171 
1.67748 1.07145 12.6256 
0.731976 0.986905 11.249 
-0.641111 0.434902 4.71403 
1.61404 1.13979 12.1797 
-0.352672 0.133548 1.36522 
-0.352672 0.133548 1.36522 
0.875064 1.11661 11.5728 
2.26345 1.25313 13.6764 
1.79513 1.40542 12.8727 
0.854077 1.32338 11.6314 
0.827714 1.21306 8.91889 
0.368007 1.24221 10.6428 
-0.649878 0.808655 6.866 
1.13417 1.42854 12.0739 
2.38217 1.6587 13.5409 
-0.69291 0.91108 6.8993 
2.42757 1.80107 13.6738 
3.8823 2.0715 15.0131 
1.08411 1.71467 11.9711 
-0.841108 0.865273 5.73098 
1.08768 1.86868 12.3309 
2.86998 2.21662 14.1922 
2.86998 2.21662 14.1922 
-0.571807 1.22308 7.72185 
-0.571807 1.22308 7.72185 
-0.571807 1.22308 7.72185 
1.01401 1.90987 12.0451 
4.06081 2.75025 15.4421 
4.06081 2.75025 15.4421 
-0.36315 1.60236 8.78161 
-0.0200147 0.0128857 0.0649544 
4.76975 3.36648 16.4411 
-0.0426526 0.0403365 0.1779 
4.52642 3.39582 16.2081 
-0.418575 1.92771 8.91013 
-0.418575 1.92771 8.91013 
-0.925304 1.45323 6.30766 
-0.925304 1.45323 6.30766 
-0.103044 2.57316 10.027 
1.71027 -1.55803 7.62524 
-0.901696 -0.743963 3.09636 
-1.07316 -1.98749 8.41375 
-0.180773 -2.52233 10.6581 
-0.180773 -2.52233 10.6581 
0.437294 -2.6517 11.7005 
0.545306 -2.17049 11.6098 
-0.887047 -0.569404 3.04706 
-0.668541 -1.51579 8.50023 
-0.512445 -1.55997 9.01923 
-0.297013 -1.53366 9.20243 
0.831325 -1.96486 11.9079 
3.32209 -2.38461 14.7349 
-0.424701 -1.40583 8.91485 
1.99924 -2.10425 13.6265 
-0.779083 -1.1162 7.65748 
-0.704762 -1.16413 8.21139 
3.75965 -2.06273 14.9557 
3.49025 -1.92609 14.0176 
2.63167 -1.93367 14.0751 
1.26892 -1.58235 12.4742 
-0.47533 -1.08099 8.86979 
-0.58065 -0.759321 6.46629 
3.6527 -1.64561 14.6768 
-0.435369 -0.880671 8.24458 
-0.0479181 -0.928245 9.29719 
1.41706 -1.23034 12.3896 
-0.724457 -0.613721 6.56089 
-0.33021 -0.719749 8.43098 
1.66277 -1.00512 12.6093 
1.66277 -1.00512 12.6093 
1.66277 -1.00512 12.6093 
0.365899 -0.790117 10.4842 
2.69464 -1.02565 13.6964 
1.043 -0.8432 11.6831 
0.00608288 -0.706123 9.97768 
2.17654 -0.947503 13.1808 
1.46671 -0.856539 12.3171 
1.46671 -0.856539 12.3171 
3.99246 -0.943443 15.1398 
3.0231 -0.856859 14.4428 
-0.577462 -0.118925 2.00428 
3.73276 -0.847617 14.8303 
1.30832 -0.678073 12.1719 
1.26054 -0.657978 11.7995 
0.424594 -0.502341 10.6598 
0.424594 -0.502341 10.6598 
2.0908 -0.621629 13.0873 
2.0908 -0.621629 13.0873 
-0.641923 -0.288098 6.64775 
0.713795 -0.332724 11.1543 
0.749297 -0.352179 11.6168 
2.17449 -0.187479 12.8007 
-0.161367 -0.00380489 0.793179 
2.38668 -0.00218972 13.4457 
0.535538 0.071886 10.5953 
0.366922 0.344744 10.7896 
-0.798358 0.152685 4.51157 
-0.191794 0.0228863 0.661943 
-0.191794 0.0228863 0.661943 
3.7425 0.609641 14.6924 
-0.572104 0.214427 4.56441 
1.79555 0.559327 12.6798 
-0.705837 0.218627 3.72584 
-0.572746 0.472812 7.54387 
2.744 0.972587 13.2133 
2.90714 1.08865 13.8944 
-0.744921 0.284511 3.51804 
2.82531 1.09947 14.119 
0.483273 0.650902 6.01641 
-0.733534 0.441972 5.15891 
1.91991 1.17254 13.0893 
-0.759628 0.372671 4.03332 
-0.232427 0.271351 1.86796 
4.12663 1.95383 15.4373 
4.12663 1.95383 15.4373 
-0.660397 0.43755 3.11343 
0.564369 1.50093 10.9524 
0.564369 1.50093 10.9524 
-0.0110547 0.00411486 0.0275408 
-0.0110698 0.00412115 0.0275803 
-0.849074 0.820653 5.4374 
2.94869 2.36985 14.3375 
2.94869 2.36985 14.3375 
3.921 2.57047 15.2163 
0.61691 1.99429 11.3428 
0.557194 2.07648 11.0842 
3.94673 3.15871 15.3069 
2.3673 2.93326 13.9119 
2.30745 3.14353 14.1145 
4.24189 3.68418 15.9088 
-0.897623 1.52616 6.49795 
-0.897623 1.52616 6.49795 
1.96432 -1.54639 6.61636 
-1.13399 -0.942291 4.12632 
-1.13399 -0.942291 4.12632 
0.230152 -2.36914 11.0745 
-0.51982 -1.98386 9.53524 
0.550416 -2.45448 11.7203 
1.79691 -2.68353 13.0019 
-0.930407 -1.5176 7.3941 
1.21209 -2.58432 12.6071 
-0.9536 -1.36112 7.34453 
1.00517 -1.85451 11.9546 
-0.506628 -1.31999 8.78328 
-1.06924 -0.594818 4.33747 
-1.06924 -0.594818 4.33747 
3.7511 -2.05575 14.9125 
2.65422 -1.91604 14.1911 
2.65422 -1.91604 14.1911 
1.00306 -1.43978 11.9983 
-0.485231 -0.753315 7.77278 
-0.485231 -0.753315 7.77278 
-0.911981 -0.504364 5.82905 
0.587965 -0.768952 11.0085 
2.34227 -0.93713 13.416 
-0.747518 -0.192996 2.84664 
3.26522 -0.974525 14.7382 
1.29866 -0.687222 12.2923 
1.34767 -0.70804 12.6768 
1.97968 -0.719083 12.9759 
-0.611509 -0.237138 7.22115 
1.47237 -0.362416 12.3716 
0.51407 -0.221919 12.7883 
0.820909 -0.156263 10.8799 
1.21423 -0.249683 15.0571 
-0.749643 0.0283773 4.39681 
2.25993 0.121711 13.4446 
-0.718804 0.182514 5.18149 
1.10133 0.424436 11.659 
1.28642 0.512479 12.2612 
1.28642 0.512479 12.2612 
1.28642 0.512479 12.2612 
1.41207 0.524831 12.1327 
1.62858 0.569213 12.6177 
-0.65861 0.164739 2.87372 
-0.761498 0.358459 5.30301 
1.88014 0.882693 13.1582 
3.12122 0.97287 14.4868 
0.357212 0.777012 10.6853 
0.402516 1.02346 10.6142 
0.586675 1.12495 10.6674 
0.139877 0.564498 4.05402 
-0.698725 0.35541 3.2237 
-0.205529 0.0815035 0.728926 
0.556516 1.64425 11.1492 
-0.772654 0.953299 6.3198 
4.33951 2.78807 15.6952 
4.33951 2.78807 15.6952 
1.37546 -2.87349 12.7262 
2.33563 -3.07789 14.1123 
2.33563 -3.07789 14.1123 
2.33563 -3.07789 14.1123 
-0.637965 -2.18659 10.6904 
1.6558 -2.79287 13.3922 
3.07988 -2.97301 14.7165 
0.659219 -2.16093 11.6772 
3.06442 -2.19773 14.5083 
2.08574 -1.91888 13.6293 
-0.937381 -0.440424 3.59234 
2.79334 -1.68584 14.1061 
2.79334 -1.68584 14.1061 
-0.152211 -0.979289 9.23987 
2.16571 -1.28671 14.0398 
3.37016 -1.40168 14.7447 
0.714902 -0.990669 11.3279 
3.4028 -1.12326 14.6319 
3.56207 -1.02581 14.526 
1.67056 -0.827309 12.6646 
1.67056 -0.827309 12.6646 
1.67056 -0.827309 12.6646 
-0.792344 -0.365947 6.38757 
1.90008 -0.376223 12.8909 
1.90008 -0.376223 12.8909 
0.480709 -0.201131 11.346 
0.923244 0.010531 11.2616 
0.923244 0.010531 11.2616 
2.71488 0.19566 13.5495 
1.03328 0.196129 11.1779 
1.03328 0.196129 11.1779 
0.478205 0.231051 10.9222 
0.538973 0.49303 10.2314 
-0.336659 0.0641199 1.22858 
5.16416 1.01396 16.1482 
5.16416 1.01396 16.1482 
1.19489 0.805077 11.9044 
2.65931 1.35241 13.9876 
-0.013954 0.00423143 0.0388458 
-0.013954 0.00423143 0.0388458 
2.95832 1.64945 14.3168 
-0.487733 0.879917 7.00162 
-0.41459 1.03769 7.95713 
-0.306631 1.20406 8.741 
0.738936 1.62413 11.1874 
2.4495 2.06968 13.8614 
-0.633317 1.19938 7.27968 
2.31539 2.41849 14.0666 
4.48002 3.06636 15.9224 
4.48002 3.06636 15.9224 
4.48002 3.06636 15.9224 
-0.563447 1.58501 7.84979 
-0.563447 1.58501 7.84979 
2.18621 2.90147 13.9662 
2.14131 3.25893 13.9891 
-0.0138396 0.00886129 0.0344639 
-0.0138396 0.00886129 0.0344639 
-0.0138396 0.00886129 0.0344639 
-0.0138396 0.00886129 0.0344639 
-0.795875 -1.49314 8.16328 
2.45821 -2.12856 13.696 
-0.695293 -0.81594 6.63575 
3.1589 -1.60634 14.5896 
0.86225 -1.15891 11.5472 
-0.0235959 -0.00648933 0.0594143 
-0.0235959 -0.00648933 0.0594143 
1.23778 -0.968017 11.9891 
-0.743367 -0.572034 7.38218 
-0.125505 -0.73557 10.1067 
0.739271 -0.195213 10.9819 
1.99358 0.179945 13.2573 
-0.766205 0.0725299 4.9398 
-0.765176 0.108559 5.69748 
-0.765176 0.108559 5.69748 
-0.0385388 0.0095023 0.451399 
3.82593 0.332501 15.3203 
3.82593 0.332501 15.3203 
0.196972 0.452244 9.8435 
0.961699 0.594795 11.4401 
2.7382 0.849308 14.0089 
1.56312 0.874771 12.5194 
-0.745323 0.353171 3.6439 
-0.696683 1.51646 7.40499 
-0.852398 1.60117 7.11366 
-0.852398 1.60117 7.11366 
-0.872972 -0.634204 2.96892 
3.22634 -2.64335 14.5588 
1.66173 -1.17815 7.838 
1.66173 -1.17815 7.838 
3.22634 -2.64335 14.5588 
2.56547 0.26661 13.7387 
4.76972 1.21285 15.965 
-0.837463 0.989373 5.76671 
3.53575 0.880847 14.7952 
-0.146669 -0.0794317 0.475119 
-0.146669 -0.0794317 0.475119 
