ply
format ascii 1.0
element vertex 1772
property float x
property float y
property float z
end_header
-0.197262 -0.229833 5.84558 
0.0620051 -0.23052 5.87833 
0.0833123 -0.233934 5.89145 
-0.319524 -0.221465 5.7944 
0.327864 -0.227343 5.95194 
-1.77062 -0.200719 5.51511 
-1.77062 -0.200719 5.51511 
0.289849 -0.210152 5.90377 
0.377268 -0.209895 5.91309 
0.542603 -0.211903 5.94366 
-1.85182 -0.193076 5.50062 
0.592424 -0.206407 5.95693 
-0.332861 -0.196677 5.81828 
-0.332861 -0.196677 5.81828 
0.398636 -0.194495 5.84398 
0.556276 -0.197547 5.95246 
0.135837 -0.193 5.88396 
-1.87849 -0.173813 5.50665 
-1.85705 -0.174732 5.5026 
-0.709563 -0.167774 5.74273 
-0.524996 -0.163639 5.77464 
0.188771 -0.168149 5.90465 
0.341375 -0.165164 5.85919 
0.341375 -0.165164 5.85919 
-0.114595 -0.161387 5.81427 
0.968693 -0.166541 6.09277 
0.968693 -0.166541 6.09277 
0.404618 -0.15301 5.91942 
-0.347341 -0.148886 5.81567 
-0.347341 -0.148886 5.81567 
-0.329008 -0.149331 5.7974 
-0.0434338 -0.151196 5.85329 
-0.213044 -0.146711 5.83889 
-0.213044 -0.146711 5.83889 
-0.213044 -0.146711 5.83889 
0.00760468 -0.146867 5.85502 
0.00760468 -0.146867 5.85502 
-0.524824 -0.138567 5.77227 
-0.671423 -0.134224 5.76025 
0.185571 -0.135605 5.87107 
-1.82902 -0.122679 5.5247 
-1.82902 -0.122679 5.5247 
0.542201 -0.133897 5.93469 
1.07109 -0.141276 6.07627 
-0.228164 -0.130596 5.84593 
0.118297 -0.126023 5.8775 
0.23336 -0.129011 5.91308 
0.572421 -0.127704 5.92985 
-0.00638006 -0.116485 5.87603 
-0.0515873 -0.109834 5.82145 
-0.0515873 -0.109834 5.82145 
0.297831 -0.109776 5.90947 
0.297831 -0.109776 5.90947 
-0.327981 -0.102197 5.81805 
0.467484 -0.10269 5.85385 
0.334558 -0.0998575 5.89023 
-1.03788 -0.0910107 5.69366 
-0.159874 -0.0930583 5.80705 
-1.05709 -0.0895032 5.66312 
0.219467 -0.0930409 5.89825 
0.286814 -0.0882542 5.88588 
0.915765 -0.0914077 6.16953 
-1.74912 -0.072582 5.53078 
0.0541863 -0.0751694 5.88395 
0.30096 -0.0747148 5.89508 
0.30096 -0.0747148 5.89508 
0.154391 -0.0744721 5.88086 
0.249457 -0.0727326 5.83825 
-0.399987 -0.0671957 5.8115 
0.437024 -0.0692213 5.91755 
-1.83255 -0.0578339 5.50908 
1.57717 -0.0694505 6.31374 
0.903955 -0.0623902 6.10657 
-0.452296 -0.0504987 5.80197 
0.120403 -0.0515291 5.84457 
0.191678 -0.0535954 5.86108 
-0.637141 -0.0472533 5.79341 
0.252894 -0.044294 5.88397 
-0.651153 -0.0435944 5.74125 
0.0598926 -0.0423205 5.88383 
0.918274 -0.0445076 6.10852 
0.918274 -0.0445076 6.10852 
0.970561 -0.0475513 6.12089 
0.970561 -0.0475513 6.12089 
0.0243238 -0.0400325 5.86656 
0.594238 -0.0407768 5.98307 
0.594238 -0.0407768 5.98307 
-0.495954 -0.0368435 5.80938 
-0.181799 -0.0371565 5.83311 
1.00486 -0.0294934 6.22499 
0.437558 -0.0240822 5.90612 
-1.18649 -0.019207 5.66203 
0.150202 -0.00964146 5.8669 
0.172084 -0.00645969 5.835 
0.172084 -0.00645969 5.835 
0.63679 -0.00848478 5.98341 
1.07657 -0.00771223 6.21891 
-0.69551 -0.00457833 5.74699 
0.980285 -0.0069185 6.16313 
0.780685 0.00226205 6.14994 
-0.495118 0.00757809 5.72208 
-0.495118 0.00757809 5.72208 
0.3642 0.00537405 5.91073 
1.05548 0.0122976 6.17723 
-0.0211689 0.0171126 5.92895 
0.451866 0.0172711 5.94017 
0.802585 0.0351145 4.92114 
0.534064 0.0211857 5.89844 
-0.4219 0.0223624 5.81282 
0.153352 0.0227724 5.89898 
0.314056 0.0222025 5.91959 
-0.81098 0.0272524 5.73756 
-0.556684 0.0273366 5.78767 
-0.344257 0.0305944 5.82465 
-0.221113 0.029541 5.8924 
0.121711 0.0373943 5.8869 
0.168303 0.0403406 5.87714 
0.629997 0.0393062 6.03281 
-0.42905 0.0422448 5.82878 
-0.42905 0.0422448 5.82878 
-0.69929 0.0511003 5.75728 
-0.69929 0.0511003 5.75728 
0.46946 0.0550473 5.90363 
1.42293 0.0640634 6.34318 
0.434278 0.0653411 5.91081 
-0.638887 0.0705069 5.76837 
-0.638887 0.0705069 5.76837 
0.285562 0.0739664 5.91821 
0.315516 0.0735536 5.85901 
0.499695 0.0712737 5.78393 
0.922803 0.0741765 6.14903 
0.922803 0.0741765 6.14903 
-1.02578 0.0755273 5.72048 
-0.111225 0.0797292 5.84951 
-0.710967 0.0790605 5.75226 
0.91411 0.0890326 6.1901 
-0.580489 0.0868817 5.76628 
0.270414 0.0871215 5.87004 
-0.766391 0.088558 5.74819 
-0.334282 0.0944935 5.85037 
-0.245658 0.0943606 5.79964 
0.467158 0.102076 5.90526 
0.73571 0.102716 6.07997 
-0.535435 0.102645 5.79576 
1.5903 0.111004 6.36045 
0.25633 0.10882 5.84128 
1.29057 0.112008 6.28302 
1.29057 0.112008 6.28302 
-0.221304 0.109531 5.82558 
1.08379 0.124176 6.26836 
-0.539304 0.125101 5.82133 
0.166754 0.126453 5.81264 
-0.416447 0.130552 5.78605 
-0.0878278 0.131506 5.85313 
0.327679 0.134225 5.90715 
-0.508499 0.134077 5.79218 
-0.79834 0.141154 5.74283 
-0.322797 0.148361 5.81188 
0.870796 0.160929 6.18194 
0.870796 0.160929 6.18194 
0.525261 0.154288 5.84094 
0.920239 0.163544 6.23668 
1.16692 0.174753 6.3382 
0.898638 0.172587 6.21502 
-0.115495 0.162207 5.81467 
0.175494 0.168694 5.92813 
0.175494 0.168694 5.92813 
0.213375 0.16404 5.7722 
-0.288013 0.169318 5.83691 
-0.465268 0.1714 5.80108 
-0.18367 0.175372 5.88078 
-0.798908 0.173487 5.73451 
-0.717779 0.174098 5.75146 
0.69275 0.190097 6.26146 
0.759463 0.191052 6.22314 
-1.77757 0.17736 5.53403 
-0.658724 0.181896 5.76278 
-0.551574 0.181171 5.7992 
0.558668 0.190243 5.92783 
-0.574356 0.192638 5.77705 
0.301302 0.196522 5.90427 
0.719138 0.20813 6.17088 
1.05445 0.216663 6.34522 
-0.246408 0.202732 5.81834 
-0.224796 0.203216 5.83518 
1.08483 0.216428 6.28476 
-1.38592 0.204182 5.61645 
-0.0228993 0.213851 5.83577 
-0.0228993 0.213851 5.83577 
0.478757 0.226094 6.17103 
0.623939 0.225352 6.09723 
0.623939 0.225352 6.09723 
1.0037 0.237015 6.32644 
0.759306 0.238851 6.29266 
0.759306 0.238851 6.29266 
-1.31283 0.226617 5.65061 
-0.952571 0.230565 5.7171 
-0.0868873 0.234962 5.85349 
1.02744 0.250553 6.28869 
1.09411 0.251094 6.34516 
-0.630257 0.235024 5.76455 
88727.7 -11556.8 518703 
-1.01715 0.239481 5.7007 
-1.01715 0.239481 5.7007 
-0.784989 0.241466 5.75101 
-0.524374 0.245584 5.78935 
-0.524374 0.245584 5.78935 
1.08312 0.271314 6.36515 
-0.961938 0.250294 5.69215 
0.253646 0.259263 5.86026 
-1.32961 0.250698 5.64097 
-1.03325 0.256176 5.70875 
-1.42106 0.254381 5.62192 
-1.31365 0.257518 5.64043 
1.59087 0.289504 6.40657 
-0.492231 0.269993 5.79927 
-0.0907402 0.270776 5.87716 
0.727153 0.295321 6.31927 
0.906351 0.304408 6.53436 
1.00717 0.296713 6.37064 
1.00717 0.296713 6.37064 
1.08164 0.294464 6.36833 
-1.79491 0.26346 5.53799 
-1.79491 0.26346 5.53799 
-1.4428 0.266659 5.61044 
-1.22088 0.272349 5.67253 
-1.22088 0.272349 5.67253 
0.980454 0.298808 6.32887 
-0.446527 0.28282 5.82841 
0.364375 0.28091 5.8123 
0.956157 0.3085 6.38935 
-1.31038 0.275674 5.64574 
-0.855815 0.28246 5.72801 
0.47328 0.26971 5.49017 
1.20621 0.309775 6.37961 
-1.26535 0.279776 5.65054 
-1.83198 0.279193 5.52902 
1.05746 0.321145 6.3759 
-0.037454 0.29908 5.82822 
0.747788 0.326714 6.42046 
0.765455 0.325218 6.39641 
-1.33504 0.292781 5.64008 
-1.25867 0.295754 5.65314 
-0.984792 0.298804 5.69685 
-0.946466 0.297926 5.67724 
-0.844894 0.300135 5.72865 
-0.844894 0.300135 5.72865 
-0.0549962 0.305776 5.84607 
0.686838 0.337451 6.48381 
-1.30928 0.299529 5.63732 
-1.30928 0.299529 5.63732 
-1.30928 0.299529 5.63732 
0.437991 0.306528 5.80576 
1.20894 0.335226 6.36242 
-1.13329 0.303626 5.69436 
0.109747 0.31024 5.81789 
0.452662 0.302354 5.6911 
-0.130968 0.316112 5.85315 
0.898073 0.360192 6.76166 
0.994481 0.342623 6.39613 
0.994481 0.342623 6.39613 
0.766444 0.350293 6.48251 
1.31816 0.354101 6.56537 
-1.33028 0.311236 5.62362 
-0.59157 0.318939 5.7656 
-0.59157 0.318939 5.7656 
-1.52476 0.316395 5.60269 
-1.24319 0.318886 5.65997 
0.809214 0.361809 6.47852 
0.809214 0.361809 6.47852 
0.88681 0.361705 6.46602 
-1.42942 0.318555 5.60603 
-0.710932 0.327287 5.74728 
-0.710932 0.327287 5.74728 
-0.548202 0.327421 5.77697 
0.78795 0.362366 6.45976 
0.78795 0.362366 6.45976 
1.12276 0.362212 6.41777 
0.8452 0.363699 6.3142 
0.8452 0.363699 6.3142 
1.01327 0.368627 6.406 
-0.0365044 0.340436 5.80391 
0.757815 0.375821 6.51058 
0.757815 0.375821 6.51058 
-1.4761 0.332257 5.6048 
-1.38294 0.332047 5.62284 
-1.35852 0.331726 5.62887 
0.173284 0.347787 5.92375 
0.432649 0.332297 5.63831 
0.418673 0.31259 5.26065 
0.418673 0.31259 5.26065 
1.06568 0.379666 6.43217 
-1.23885 0.33826 5.68074 
0.43057 0.312586 5.18609 
-1.43094 0.343233 5.62095 
-1.18517 0.348098 5.6685 
-1.18517 0.348098 5.6685 
-0.55887 0.353393 5.77486 
-21201.9 141377 -2.45808e+006 
-1.52029 0.347461 5.60703 
-1.08109 0.353105 5.69399 
0.409939 0.29453 4.76153 
-0.534799 0.362755 5.80028 
0.663956 0.417363 6.72877 
1.04808 0.396564 6.40508 
-1.53768 0.352933 5.5988 
-1.02651 0.362678 5.70054 
-0.458294 0.36562 5.80524 
-0.947919 0.367669 5.7176 
0.0961981 0.368425 5.76098 
1.1593 0.410477 6.37799 
-1.00696 0.372718 5.70426 
0.790653 0.433601 6.68176 
-0.931453 0.382518 5.74063 
-0.570687 0.379964 5.70022 
0.817426 0.427598 6.40163 
-0.968192 0.3853 5.71812 
-0.968192 0.3853 5.71812 
-0.462933 0.389951 5.82696 
0.21404 0.385718 5.71398 
0.52713 0.427896 6.33542 
0.274275 0.39569 5.82325 
-1.12474 0.388429 5.67613 
-1.2146 0.390003 5.64086 
-0.543769 0.399999 5.78222 
-1.04624 0.39779 5.70122 
0.306635 0.3984 5.73381 
0.394152 0.351008 5.05973 
0.66388 0.444668 6.33348 
-1.22379 0.405302 5.65003 
-1.22379 0.405302 5.65003 
-1.22379 0.405302 5.65003 
-0.851341 0.409875 5.73217 
3.33864 2.68104 37.3645 
0.898078 0.465786 6.49789 
1.25748 0.47553 6.62976 
0.370035 0.358331 4.90267 
-1.27114 0.418612 5.63563 
0.351668 0.399543 5.42038 
1.26627 0.483066 6.56344 
-1.4592 0.419133 5.59483 
-1.21203 0.425603 5.65678 
-1.21203 0.425603 5.65678 
0.846843 0.499698 6.61346 
-0.874301 0.440343 5.73227 
-1.38085 0.442681 5.62799 
0.347205 0.446862 5.70104 
1.24879 0.502567 6.42169 
1.38132 0.504875 6.454 
-0.848587 0.4549 5.73381 
-1.42575 0.451936 5.62811 
-0.614714 0.470076 5.77489 
0.35285 0.489576 6.0517 
0.645678 0.545997 6.64431 
0.922803 0.533071 6.4885 
1.37326 0.528291 6.43346 
-1.13884 0.472967 5.67748 
-1.43232 0.471408 5.61872 
0.171786 0.477181 5.74313 
-1.51793 0.475442 5.61517 
0.422184 0.456097 5.46269 
0.422184 0.456097 5.46269 
-0.751744 0.489319 5.78206 
1.04075 0.549208 6.46619 
0.396258 0.473692 5.55062 
0.494507 0.501934 5.86155 
1.07895 0.555437 6.47383 
-1.18285 0.493446 5.69584 
-1.07236 0.492981 5.69516 
0.130038 0.507857 5.8326 
1.21892 0.560196 6.4872 
1.39445 0.561551 6.45693 
-1.09898 0.499543 5.6938 
-0.784949 0.505225 5.74848 
-1.91151 0.49054 5.53696 
-0.846494 0.505389 5.71721 
-0.846494 0.505389 5.71721 
-0.580413 0.512275 5.76393 
-0.0480096 0.514677 5.82842 
-0.0480096 0.514677 5.82842 
1.01984 0.575796 6.51143 
1.01984 0.575796 6.51143 
-1.01737 0.508296 5.71446 
1.05244 0.571038 6.45283 
-1.14153 0.509234 5.67309 
-1.63453 0.503696 5.58381 
-1.38562 0.506895 5.62537 
-0.562837 0.518926 5.77982 
0.489668 0.522753 5.82795 
0.746228 0.594853 6.59009 
-0.935496 0.523635 5.72743 
0.987894 0.587699 6.39068 
1.05188 0.597171 6.50385 
1.22388 0.589782 6.43707 
-1.12979 0.526384 5.68797 
-1.89133 0.512772 5.50796 
-1.25186 0.526799 5.638 
0.604769 0.590518 6.3578 
1.41833 0.597089 6.45134 
-0.831914 0.536586 5.73037 
-1.02738 0.538982 5.70749 
0.576118 0.595016 6.31555 
-0.860092 0.54185 5.73277 
0.0497565 0.548125 5.80522 
0.496845 0.562463 5.94571 
0.496845 0.562463 5.94571 
-1.42982 0.536252 5.6105 
-0.562422 0.548981 5.76683 
-0.562422 0.548981 5.76683 
-0.542093 0.551605 5.77999 
1.36699 0.612543 6.43788 
-1.88745 0.529806 5.52076 
-1.4531 0.540361 5.63467 
-0.583082 0.555201 5.76327 
0.933201 0.629017 6.51014 
-1.52201 0.562812 6.03181 
-1.41397 0.548578 5.61026 
-1.14245 0.555208 5.68622 
-1.03193 0.555364 5.7024 
-0.00364605 0.560833 5.77562 
0.89737 0.626581 6.39547 
1.1162 0.63523 6.50391 
-0.858187 0.562716 5.71912 
-0.819152 0.567701 5.72992 
-1.44748 0.559704 5.60518 
1.59189 0.647989 6.50156 
-1.08911 0.567438 5.66756 
1.54167 0.645073 6.43752 
-1.67953 0.562243 5.56583 
-1.42451 0.565511 5.61132 
-1.34106 0.568275 5.63789 
-1.62941 0.565828 5.5859 
0.592188 0.628386 6.21355 
0.717275 0.674121 6.6697 
1.00633 0.666657 6.62288 
1.04968 0.651602 6.46364 
-0.781395 0.589482 5.74429 
1.14388 0.67475 6.55171 
0.905084 0.669924 6.4736 
0.917728 0.667174 6.42826 
0.638493 0.653266 6.28966 
-1.48386 0.587398 5.61137 
0.423566 0.608176 5.83356 
0.423566 0.608176 5.83356 
-1.2429 0.596542 5.65193 
1.00816 0.690178 6.54696 
-1.46716 0.597854 5.60869 
-1.46716 0.597854 5.60869 
0.756512 0.663157 6.21211 
-1.69574 0.597064 5.56164 
1.09478 0.689291 6.44257 
1.31462 0.693039 6.45066 
1.31462 0.693039 6.45066 
-1.06218 0.612726 5.67943 
0.433515 0.642533 5.90652 
0.433515 0.642533 5.90652 
0.332166 0.616524 5.64708 
0.617532 0.692629 6.33062 
1.83037 0.716486 6.53435 
0.0969747 0.636291 5.76974 
0.56442 0.661799 6.01256 
0.73889 0.694347 6.26565 
-1.54545 0.636936 5.7795 
1.35534 0.700801 6.30258 
-0.906749 0.639937 5.71219 
1.0061 0.722229 6.47199 
5923.6 3354.88 32913 
0.910486 0.721866 6.41033 
0.910486 0.721866 6.41033 
0.221491 0.664861 5.89524 
0.410944 0.648251 5.76398 
1.10643 0.729022 6.46165 
0.172108 0.657121 5.77502 
0.381122 0.665157 5.85052 
0.417552 0.638476 5.62938 
0.714565 0.726196 6.35233 
0.153616 0.665787 5.81381 
0.453831 0.675503 5.89315 
0.453831 0.675503 5.89315 
0.73586 0.71598 6.21573 
1.38914 0.744224 6.45995 
-1.80641 0.642188 5.55029 
-0.942966 0.659325 5.7143 
1.90475 0.755346 6.54681 
0.548359 0.70646 6.09317 
0.548359 0.70646 6.09317 
0.866268 0.79529 6.84238 
1.54777 0.638316 5.41569 
-1.58665 0.654112 5.58021 
-1.11772 0.667405 5.69088 
0.352876 0.684065 5.83573 
0.935683 0.751337 6.38418 
-1.83124 0.653468 5.53314 
-1.47189 0.664108 5.59126 
-0.136706 0.687441 5.84498 
0.307026 0.68666 5.84257 
1.94084 0.773253 6.56555 
-1.4595 0.665981 5.60678 
1.5719 0.651058 5.42057 
-1.58498 0.673402 5.59281 
-1.52836 0.67499 5.59108 
0.563876 0.73111 6.09903 
1.04066 0.757469 6.29293 
1.04066 0.757469 6.29293 
3.09326 1.2102 10.3014 
0.225728 0.699706 5.79133 
1.02439 0.780804 6.43441 
1.29144 0.783312 6.46169 
1.29144 0.783312 6.46169 
1.09726 0.781609 6.40815 
1.51134 0.795389 6.53774 
809.054 1197.45 10162.2 
-1.58111 0.691533 5.58273 
-1.55445 0.693974 5.60937 
-1.52556 0.693411 5.60295 
-0.750578 0.709355 5.74163 
0.402063 0.727732 5.90209 
-1.46095 0.695696 5.60986 
0.740781 0.781363 6.30823 
-0.626118 0.717063 5.75827 
0.517239 0.753146 6.06967 
-1.51052 0.702739 5.61172 
-0.781269 0.715237 5.71793 
0.0619964 0.727162 5.80989 
1.143 0.81424 6.48098 
1.31829 0.813924 6.47397 
0.615186 0.765536 6.03032 
-1.63395 0.711877 5.57694 
-1.10769 0.72541 5.68297 
-1.61325 0.71564 5.58139 
-0.88287 0.731803 5.7182 
-0.88287 0.731803 5.7182 
-0.676439 0.736013 5.75841 
-0.676439 0.736013 5.75841 
0.110374 0.738169 5.78889 
0.264684 0.739912 5.80883 
-0.643281 0.744143 5.78735 
0.416541 0.763158 5.92328 
0.618865 0.800442 6.18969 
-0.963843 0.74374 5.7244 
0.0579213 0.752052 5.79869 
1.12055 0.840876 6.45123 
1.3198 0.842142 6.45523 
-1.42321 0.739422 5.61121 
0.399805 0.781725 5.9327 
0.94392 0.838495 6.35322 
1.54618 0.857803 6.50574 
1.5645 0.854926 6.49081 
-1.71906 0.735286 5.54626 
1.6347 0.860401 6.50367 
-0.686553 0.764704 5.75726 
-0.599136 0.765362 5.74839 
0.283928 0.780256 5.86818 
1.51369 0.867969 6.5174 
-1.90188 0.768501 5.77422 
1.41692 0.875861 6.50085 
1.59773 0.879858 6.53215 
1.65577 0.874251 6.49157 
-1.73748 0.753643 5.55951 
-0.628691 0.77931 5.77389 
-1.86159 0.753373 5.54097 
-1.86159 0.753373 5.54097 
-0.962309 0.77409 5.70193 
-1.53672 0.765008 5.60027 
0.450882 0.812821 5.96923 
0.715489 0.823627 6.037 
1.06288 0.871137 6.38916 
1.3229 0.896472 6.57594 
1.65907 0.895236 6.57708 
-1.84133 0.759243 5.54361 
0.552955 0.82666 6.01303 
-1.30508 0.782569 5.64713 
1.40497 0.972865 7.041 
-1.2867 0.788385 5.64868 
1.05018 0.883779 6.31684 
1.58025 0.906674 6.50791 
-1.55015 0.785712 5.61185 
1.25757 0.907897 6.4728 
-0.976349 0.804726 5.70535 
0.0604236 0.816945 5.82842 
1.71174 0.911395 6.46837 
1.41393 0.91813 6.49265 
1.62423 0.922406 6.53595 
-1.37947 0.798068 5.62862 
-0.517288 0.824769 5.77657 
0.499954 0.857874 6.05674 
-1.19053 0.807996 5.67291 
-1.19053 0.807996 5.67291 
-0.936173 0.815369 5.72227 
0.478901 0.863026 6.05284 
-1.22087 0.813975 5.65756 
0.933536 0.911313 6.32159 
-1.33366 0.81732 5.64069 
-1.33366 0.81732 5.64069 
1.32052 0.937187 6.48326 
1.80476 0.963118 6.67742 
0.370324 0.860208 5.93699 
0.565948 0.897235 6.15783 
1.22358 0.931449 6.37197 
1.37286 1.01831 6.96809 
0.277458 0.865045 5.89528 
0.528212 0.884553 6.01322 
0.699259 0.913123 6.19324 
-1.329 0.836623 5.63931 
-1.24351 0.837564 5.65423 
-0.505771 0.84583 5.71752 
0.0780226 0.877106 5.86801 
0.0780226 0.877106 5.86801 
-1.25694 0.848304 5.64786 
-0.771189 0.864243 5.75766 
0.101633 0.875475 5.84806 
-0.528789 0.870272 5.78178 
0.453216 0.896066 5.92464 
0.993828 0.974002 6.38933 
0.713959 0.944045 6.18154 
1.10895 0.977694 6.38299 
1.40981 0.772071 4.99046 
-0.874469 0.882411 5.7437 
-0.628478 0.881847 5.74782 
0.376843 0.908232 5.93747 
1.07495 0.981457 6.39273 
1.46867 0.997146 6.50047 
-0.601959 0.886863 5.76739 
1.18783 1.00403 6.4133 
-0.818259 0.884287 5.65443 
0.487809 0.958106 6.10917 
-0.780216 0.897712 5.7188 
0.857752 0.9859 6.25683 
0.0828108 0.92482 5.84075 
0.271871 0.930994 5.89401 
0.570569 0.986518 6.21493 
-0.940317 0.903871 5.6788 
0.721286 0.9829 6.17345 
1.00352 1.00558 6.31251 
0.353422 0.933414 5.86585 
-0.761147 0.919787 5.7339 
0.784287 1.00647 6.27775 
0.883327 1.00811 6.28352 
0.941416 1.01581 6.32941 
0.941416 1.01581 6.32941 
-1.36816 0.90541 5.63033 
-0.743284 0.925638 5.76196 
0.251335 1.35185 8.58215 
0.850915 1.00294 6.24735 
1.58565 1.05334 6.5292 
1.58565 1.05334 6.5292 
1.65129 1.05103 6.50576 
0.0670706 0.937107 5.80306 
1.1564 1.03706 6.38327 
1.1564 1.03706 6.38327 
1.95903 1.06922 6.58948 
1.63257 1.06162 6.50531 
-1.35605 0.923811 5.65042 
-1.02267 0.924649 5.64885 
-0.57912 0.926303 5.66357 
0.438608 0.993077 6.08258 
1.08092 1.04749 6.37158 
1.08092 1.04749 6.37158 
1.67414 1.06887 6.49959 
1.05145 1.05724 6.38505 
-1.00428 0.948309 5.72422 
1.02332 1.05867 6.34541 
2.28555 1.24775 7.45415 
-1.32824 0.951759 5.63805 
0.699929 1.0422 6.17488 
0.855465 1.05927 6.27373 
1.18393 1.0802 6.40042 
0.240117 0.998502 5.91528 
1.4238 1.09695 6.49679 
0.420629 1.02166 6.03549 
1.04174 1.08203 6.34797 
2.81149 1.53199 9.07313 
-0.99914 0.976713 5.69897 
-0.576233 0.984904 5.73961 
0.662768 1.05357 6.15638 
0.678966 1.03726 6.05319 
1.31588 1.11004 6.44015 
1.16853 0.762755 4.35722 
-0.956762 0.990885 5.70336 
1.55426 1.12873 6.5007 
-0.944328 0.949611 5.41564 
0.652728 1.06983 6.1278 
0.835489 1.09848 6.28257 
1.1559 1.12374 6.40422 
-0.583337 1.01525 5.76104 
1.26193 1.13197 6.41827 
1.26193 1.13197 6.41827 
1.39777 0.908015 5.1213 
1.53635 1.1558 6.52359 
-1.01299 1.00988 5.69475 
-1.61883 0.998788 5.56549 
0.510059 1.09208 6.10884 
1.31934 1.15676 6.4453 
1.49445 1.16007 6.47377 
1.49445 1.16007 6.47377 
-0.580098 1.03782 5.78243 
-1.02601 1.02226 5.67616 
-0.667399 1.0383 5.73516 
1.48166 1.15671 6.36518 
1.16028 0.77454 4.22037 
-1.62386 1.02641 5.60841 
-0.581272 1.05502 5.7748 
8.23387 4.48328 24.8806 
-1.25206 1.04004 5.6422 
-1.25206 1.04004 5.6422 
0.477451 1.10313 6.00607 
0.477451 1.10313 6.00607 
0.904504 1.30813 7.08787 
1.82971 1.20615 6.55278 
-1.32574 1.04048 5.63323 
1.10585 1.18303 6.35972 
1.40756 1.20193 6.46737 
-0.0667468 1.08718 5.8559 
0.352387 1.11384 5.98344 
-0.371005 1.08582 5.81283 
-0.371005 1.08582 5.81283 
0.798861 1.16531 6.23758 
-0.706414 1.0543 5.60959 
0.259913 1.10319 5.90599 
0.486434 1.14261 6.10409 
-1.07929 1.07195 5.70057 
-0.359229 1.10143 5.85283 
0.646132 1.17027 6.21652 
-1.25527 1.07437 5.65371 
-0.681705 1.09417 5.74953 
0.181803 1.12018 5.90565 
0.94715 1.19113 6.26611 
837.3 1730.35 9194.5 
1.65524 1.24259 6.49497 
-1.74642 1.06047 5.54403 
-1.02198 1.06232 5.5159 
0.41214 1.15815 6.04565 
1.13403 1.21853 6.33794 
-1.24822 1.09315 5.65637 
-0.704346 1.10983 5.75422 
0.309207 1.15087 5.96396 
0.435795 1.1667 6.05833 
-0.983561 1.1005 5.67793 
0.370564 1.15442 5.97429 
0.370564 1.15442 5.97429 
0.276559 1.15386 5.94795 
0.398902 1.16122 5.97897 
0.628307 1.19372 6.14058 
-0.787806 1.12496 5.76258 
-0.65488 1.12538 5.76932 
-1.01443 1.11353 5.68657 
-0.723255 1.12604 5.75436 
0.914078 1.23161 6.28559 
1.00887 1.2398 6.33098 
-1.30906 1.10837 5.63947 
-1.1182 1.15226 5.89091 
-1.87399 1.09125 5.53294 
0.892685 1.24113 6.29644 
-1.75957 1.06807 5.39151 
0.480086 1.19113 6.04476 
0.889981 1.10996 5.63365 
1.69536 1.29923 6.57385 
-1.64793 1.10794 5.58148 
0.927581 1.23821 6.25173 
-1.46704 1.11487 5.60189 
-1.72949 1.12215 5.5893 
-1.72949 1.12215 5.5893 
-1.31265 1.12869 5.63565 
1.05139 1.40184 6.97888 
-1.41413 1.13156 5.64512 
-1.10996 1.14966 5.70594 
1.07236 1.28375 6.33587 
-0.614178 1.1712 5.77844 
-0.614178 1.1712 5.77844 
-1.193 1.15618 5.6667 
1.14321 1.29856 6.3501 
-1.41465 1.17357 5.76173 
-0.70599 1.17684 5.75504 
-1.34827 1.15866 5.63696 
0.470453 1.23917 6.0352 
0.470453 1.23917 6.0352 
24149.8 13166.2 70902.7 
-1.20556 1.17086 5.66834 
0.574005 1.27467 6.1815 
1.16138 1.30508 6.30558 
-1.13418 1.17381 5.67981 
1.17376 1.30127 6.26804 
1.57621 1.35017 6.49126 
-1.11273 1.17753 5.65887 
0.314781 1.24274 5.96708 
-0.7136 1.20748 5.76852 
-0.621322 1.20933 5.77873 
1.10566 1.32865 6.33799 
-1.56422 1.2716 6.16417 
-1.15654 1.19717 5.67762 
-0.732564 1.21215 5.76095 
3.51347 2.30027 10.9551 
1.82385 1.38282 6.53354 
0.390868 1.27442 6.00701 
1.21578 1.40701 6.6164 
-1.83653 1.18391 5.53403 
-1.83653 1.18391 5.53403 
-1.14687 1.18952 5.55534 
0.929127 1.34415 6.28831 
0.943574 1.3259 6.20781 
1.06867 1.34448 6.2915 
3.42396 2.27904 10.7072 
3637.18 2356.91 11318.5 
-1.15271 1.21549 5.67105 
1.046 1.34844 6.29934 
-1.25049 1.21226 5.64548 
-0.684351 1.23419 5.75126 
-0.684351 1.23419 5.75126 
1.49645 1.793 8.28361 
1.60057 1.40081 6.50108 
1.08121 1.35017 6.25718 
1.51685 1.39976 6.49167 
-1.90765 1.22849 5.69497 
-0.738629 1.23953 5.73695 
0.444058 1.30523 6.03881 
-1.31557 1.26924 5.86124 
-0.726854 1.24874 5.76709 
0.338036 1.29951 5.99957 
-0.697839 1.25058 5.75493 
-1.51767 1.23237 5.61512 
-1.28042 1.24183 5.66203 
0.322944 1.31189 5.99943 
4.69863 3.12878 14.3632 
-0.22936 1.27858 5.81993 
-0.732521 1.27322 5.76754 
-7509.83 4833.35 26991.5 
1.47777 1.84034 8.24379 
1.41824 1.80814 8.07991 
1.6852 1.90375 8.46346 
0.69861 1.60069 7.14132 
-0.92056 1.53854 7.0122 
5.12902 3.88099 17.2723 
3.43881 2.6125 11.39 
10845.7 7104.89 31380.3 
7160.52 5513.37 23666.6 
23355.2 15306.8 68071.6 
72386.7 67712.4 452171 
-239513 -188634 2.64693e+006 
-1.56415 -2.20834 9.14334 
-1.54807 -2.21981 9.22946 
-1.52003 -2.01705 8.69744 
-1.70673 -1.15617 5.47996 
-0.838959 -1.18728 5.64812 
-1.20087 -1.15934 5.58291 
-0.892143 -1.16413 5.63814 
-0.892143 -1.16413 5.63814 
-0.808423 -1.16297 5.64356 
0.491059 -1.18447 5.87296 
-1.11379 -1.1264 5.60549 
-1.13274 -1.11912 5.60147 
4.58638 -2.85442 13.6023 
-1.28682 -1.10618 5.5675 
-1.21761 -1.10193 5.57808 
4.62439 -2.91454 14.0965 
-1.30749 -1.09188 5.56685 
-1.0382 -1.09254 5.62934 
-1.34002 -1.07365 5.56075 
-1.34002 -1.07365 5.56075 
-1.34002 -1.07365 5.56075 
-0.762715 -1.09205 5.6729 
-1.29038 -1.06426 5.57362 
-0.783788 -1.07564 5.67914 
-0.783788 -1.07564 5.67914 
-1.08832 -1.03677 5.62206 
1.84912 -1.13201 6.16386 
1.56129 -1.10337 6.11646 
1.80328 -1.11668 6.19153 
-1.19417 -1.00122 5.60265 
-1.05609 -0.99935 5.62827 
0.504336 -1.04177 5.87977 
-1.10887 -0.98971 5.60871 
-1.82463 -0.958406 5.46634 
-0.925392 -0.989953 5.64974 
-1.0556 -0.977651 5.63945 
-1.32893 -0.96149 5.5651 
-1.83861 -0.939415 5.45501 
1.63583 -1.03217 6.14357 
-0.936298 -0.940891 5.65628 
-0.936298 -0.940891 5.65628 
-1.36897 -0.914469 5.56958 
-1.31512 -0.916726 5.58881 
-0.920787 -0.929767 5.66067 
0.0517266 -0.95293 5.81718 
1.39248 -0.98379 6.10775 
1.25728 -0.970171 6.07752 
3.60609 -2.72798 16.1667 
-0.944858 -0.894796 5.66277 
-0.944858 -0.894796 5.66277 
1.36808 -0.959716 6.10153 
0.473679 -0.918832 5.8784 
0.473679 -0.918832 5.8784 
-1.11291 -0.87212 5.62131 
-1.03918 -0.874679 5.64088 
-1.03918 -0.874679 5.64088 
1.25498 -0.91901 6.08088 
-1.19011 -0.845662 5.61182 
1.34566 -0.906647 6.08462 
0.257607 -0.862768 5.84609 
0.316507 -0.866598 5.8685 
1.1765 -0.894686 6.07184 
4.19709 -3.49149 22.4516 
0.0656151 -0.844116 5.83227 
1.2393 -0.868426 6.05424 
-0.0798834 -0.833338 5.82292 
-1.27296 -0.795038 5.60693 
-1.19096 -0.792717 5.60782 
-1.19096 -0.792717 5.60782 
-1.19096 -0.792717 5.60782 
-1.06227 -0.797191 5.64036 
-1.06227 -0.797191 5.64036 
-0.974923 -0.79825 5.64691 
-0.462883 -0.807984 5.75569 
1.18743 -0.856803 6.07619 
0.0645287 -0.817771 5.8282 
-0.552882 -0.802252 5.7345 
0.920921 -0.83978 6.02093 
-1.27964 -0.767538 5.58868 
-0.471905 -0.779033 5.75525 
-0.5279 -0.774466 5.74162 
0.991033 -0.80998 6.02084 
-0.965028 -0.758689 5.66314 
-0.222759 -0.777934 5.79793 
-0.0341472 -0.772342 5.81115 
-0.156335 -0.765096 5.80564 
-0.156335 -0.765096 5.80564 
-1.096 -0.735555 5.64213 
-0.786338 -0.741948 5.70187 
-0.630902 -0.740203 5.69036 
0.500406 -0.770255 5.91418 
-1.45589 -0.722038 5.56024 
0.895667 -0.773653 5.99364 
-1.72263 -0.709634 5.51689 
-1.72263 -0.709634 5.51689 
-0.902591 -0.727525 5.66074 
-1.11318 -0.720764 5.64935 
-1.73499 -0.700387 5.49958 
0.817964 -0.746499 5.9726 
0.89183 -0.751272 6.01099 
-0.419792 -0.721034 5.77651 
-0.120992 -0.716944 5.75974 
-1.01606 -0.69844 5.66332 
-0.95845 -0.698639 5.67343 
-0.768394 -0.702819 5.69824 
-1.67861 -0.672935 5.53362 
0.746196 -0.720073 5.95492 
-0.194579 -0.698111 5.80611 
-0.69828 -0.683934 5.72478 
0.715295 -0.594617 5.07501 
-1.34311 -0.665238 5.5889 
0.683834 -0.697066 5.93739 
-0.275073 -0.677719 5.79182 
0.632504 -0.678499 5.93342 
-0.838636 -0.649448 5.69295 
0.0250946 -0.665104 5.84026 
0.225247 -0.665384 5.83285 
0.359509 -0.676281 5.93258 
-1.66269 -0.627967 5.52886 
-0.663118 -0.64875 5.71538 
-1.25643 -0.629791 5.61487 
-0.553968 -0.641696 5.73584 
0.583709 -0.661318 5.9296 
-0.902084 -0.63279 5.69304 
0.498758 -0.651161 5.91507 
-0.72315 -0.630324 5.74514 
-1.18952 -0.612813 5.63016 
0.587507 -0.637434 5.87834 
-0.593038 -0.611561 5.74856 
0.0238264 -0.620809 5.83954 
0.0238264 -0.620809 5.83954 
0.301057 -0.615186 5.8286 
-0.66594 -0.601586 5.72774 
0.0431477 -0.611927 5.84853 
-1.58091 -0.572813 5.54809 
-1.71499 -0.569097 5.52492 
-0.814727 -0.58981 5.71572 
-0.934447 -0.571778 5.68676 
-0.695171 -0.577065 5.72444 
-1.62302 -0.550735 5.53274 
-0.716421 -0.56674 5.71832 
-0.716421 -0.56674 5.71832 
-1.80084 -0.535097 5.50584 
-0.0318136 -0.569083 5.84768 
-0.0318136 -0.569083 5.84768 
-0.735826 -0.554596 5.72396 
-0.666895 -0.553707 5.7401 
-0.666895 -0.553707 5.7401 
-1.48922 -0.52631 5.54246 
-1.32434 -0.521213 5.60958 
-1.25014 -0.518638 5.63183 
-0.516804 -0.52821 5.76542 
-0.516804 -0.52821 5.76542 
1.56931 -0.572162 6.22203 
-0.700401 -0.525206 5.73638 
0.541424 -0.536377 5.92654 
0.225108 -0.529043 5.86685 
-1.70671 -0.49123 5.52371 
-1.65001 -0.490483 5.5271 
-0.666558 -0.508293 5.73355 
-0.482775 -0.509249 5.77309 
-1.0936 -0.499063 5.66302 
-0.587901 -0.504238 5.75698 
-0.587901 -0.504238 5.75698 
-1.33613 -0.481561 5.60145 
0.181081 -0.505237 5.87028 
-1.66702 -0.474985 5.56819 
0.492392 -0.491123 5.89179 
-1.4165 -0.456447 5.56837 
-0.72918 -0.466379 5.65771 
-1.11223 -0.463673 5.65821 
-0.138219 -0.474546 5.84974 
-1.26331 -0.454784 5.62966 
-1.56159 -0.44195 5.55771 
-0.420525 -0.453302 5.78462 
-0.549501 -0.448218 5.76534 
-0.264166 -0.44892 5.80883 
-0.264166 -0.44892 5.80883 
0.493875 -0.456422 5.91087 
1.66705 -0.463213 6.25019 
-1.40801 -0.410226 5.58297 
-0.183609 -0.430273 5.83618 
0.552958 -0.420557 5.83265 
0.233204 -0.421331 5.8765 
0.491849 -0.412109 5.89231 
-0.0813986 -0.398248 5.83853 
0.474796 -0.402794 5.93801 
-1.42713 -0.379204 5.59068 
1.68075 -0.425357 6.25735 
-0.401314 -0.38658 5.79706 
1.04127 -0.403782 6.07058 
-0.923588 -0.370774 5.69523 
-0.0437621 -0.380373 5.85544 
-0.0694419 -0.375833 5.84263 
-0.210975 -0.369624 5.84022 
-0.124247 -0.362826 5.83252 
-1.84678 -0.340608 5.50031 
-0.688032 -0.34997 5.74609 
-0.0455914 -0.351126 5.86076 
-0.0455914 -0.351126 5.86076 
0.104302 -0.337417 5.86753 
0.489222 -0.335617 5.88055 
-0.564228 -0.328995 5.78587 
-0.313908 -0.321934 5.75941 
0.0220137 -0.329504 5.87002 
0.0555318 -0.329705 5.87951 
-0.529176 -0.323061 5.77766 
-0.726546 -0.309078 5.74193 
0.355969 -0.317087 5.90579 
0.355969 -0.317087 5.90579 
-0.256766 -0.30054 5.83057 
-1.84916 -0.282326 5.5052 
-1.84916 -0.282326 5.5052 
0.947403 -0.308542 6.06725 
0.947403 -0.308542 6.06725 
0.492583 -0.296553 5.9253 
1.10559 -0.307848 6.11641 
1.10559 -0.307848 6.11641 
-0.403538 -0.280406 5.82616 
0.375677 -0.284996 5.90183 
0.968743 -0.284664 6.08099 
1.04491 -0.283336 6.10399 
1.04491 -0.283336 6.10399 
1.12367 -0.273004 6.10754 
0.410819 -0.25935 5.91427 
0.468983 -0.239703 5.86406 
0.892212 -0.244831 6.02379 
-0.732373 -0.222817 5.75167 
-0.570435 -0.22646 5.79083 
0.870548 -0.1086 4.13893 
0.347375 -0.216621 5.96463 
-0.353345 -0.205019 5.7928 
1.57229 -0.225089 6.26797 
-0.0429695 -0.194659 5.85542 
1.43773 -0.210099 6.20247 
1.53909 -0.20654 6.2627 
-0.732246 -0.183393 5.75028 
0.495481 -0.188433 5.96222 
0.43825 -0.183155 5.90318 
-0.275465 -0.171416 5.78746 
-1.10028 -0.160317 5.64066 
0.472002 -0.1627 5.898 
0.498575 -0.152029 5.99548 
1.04564 -0.156333 6.1238 
1.04564 -0.156333 6.1238 
0.956042 -0.144196 6.10013 
1.13654 -0.14393 6.1884 
1.13654 -0.14393 6.1884 
0.893683 -0.13563 6.03236 
-0.54521 -0.127025 5.77258 
-0.34593 -0.125107 5.84095 
1.03123 -0.133771 6.1339 
0.207725 -0.122048 5.89541 
-0.359288 -0.108847 5.82934 
-0.308634 -0.0995966 5.83174 
0.0755331 -0.100858 5.87489 
-0.732492 -0.0948389 5.75117 
-0.732492 -0.0948389 5.75117 
-0.466477 -0.0967153 5.83976 
-0.482965 -0.0922734 5.74759 
-82152.2 64961.3 -967902 
-0.388817 -0.0915173 5.81704 
-0.0329411 -0.0926796 5.87861 
-0.118505 -0.0730866 5.86782 
0.129 -0.0764413 5.89475 
0.540081 -0.0761877 5.94983 
0.540081 -0.0761877 5.94983 
0.0260434 -0.0725917 5.85839 
-1.78144 -0.0497403 5.49964 
1.3907 -0.0672828 6.37199 
0.23038 -0.0527224 5.8864 
1.40456 -0.0540524 6.25763 
-1.84522 -0.0421239 5.51274 
-1.84522 -0.0421239 5.51274 
-0.520887 -0.0404287 5.79715 
-0.242911 -0.0407088 5.84543 
-0.00578852 -0.0411077 5.86558 
1.58963 -0.0489946 6.3489 
-1.00989 -0.0351254 5.69557 
-0.353189 -0.0355842 5.83132 
-0.380281 -0.0324221 5.78004 
0.0988635 -0.0286663 5.92024 
0.0988635 -0.0286663 5.92024 
0.104222 -0.0220268 5.47559 
0.104222 -0.0220268 5.47559 
0.495649 -0.0275416 5.99676 
0.962205 -0.0239289 6.15232 
-0.731262 -0.018346 5.74484 
-0.731262 -0.018346 5.74484 
0.0199428 -0.0190678 5.85559 
-0.29429 -0.0161989 5.81692 
-0.223978 -0.0163437 5.8426 
0.901895 -0.0201408 6.12174 
-0.036793 -0.00192728 5.86977 
0.0498011 -0.000987768 5.91276 
-0.431653 0.00401328 5.81086 
0.198139 0.00261739 5.92855 
-0.472187 0.00742516 5.81189 
0.00752665 0.0072576 5.87299 
0.412112 0.0144847 5.8946 
-0.791825 0.0219286 5.77109 
-0.733219 0.0234576 5.75129 
-0.282998 0.0340182 5.78248 
-0.0338473 0.0347687 5.89614 
0.463405 0.0354991 5.89773 
-1.04486 0.0440355 5.67877 
-0.14102 0.0599062 5.84683 
1.26676 0.0673282 6.25063 
0.982594 0.0709654 6.20489 
0.982594 0.0709654 6.20489 
0.982594 0.0709654 6.20489 
-0.0347762 0.0729254 5.78675 
-0.621201 0.0811491 5.77588 
-0.695637 0.0915365 5.76794 
1.0615 0.0986769 6.24687 
1.0615 0.0986769 6.24687 
-0.644075 0.103563 5.77268 
-0.159986 0.11083 5.82786 
-0.0313732 0.112669 5.88649 
1.5898 0.130017 6.37693 
0.772289 0.133503 6.39264 
1.14639 0.128141 6.28347 
1.14639 0.128141 6.28347 
1.54873 0.143152 6.35072 
-0.607019 0.135629 5.77635 
0.0437034 0.139021 5.888 
0.222223 0.144456 5.63574 
-1.84341 0.154642 5.5239 
-1.84341 0.154642 5.5239 
0.0323944 0.165651 5.92752 
-1.85812 0.168243 5.50981 
0.853924 0.179632 6.05716 
0.991684 0.192534 6.2728 
0.991684 0.192534 6.2728 
0.991684 0.192534 6.2728 
-0.476801 0.186246 5.77403 
-0.476801 0.186246 5.77403 
-0.407071 0.187249 5.80904 
-0.407071 0.187249 5.80904 
-0.407071 0.187249 5.80904 
0.900793 0.199545 6.12958 
-0.186536 0.196638 5.85606 
-0.0673159 0.194603 5.85666 
-0.0673159 0.194603 5.85666 
0.742151 0.208357 6.18164 
0.742151 0.208357 6.18164 
-0.147314 0.205488 5.84681 
0.242259 0.204517 5.82226 
0.98032 0.216808 6.29088 
-0.311222 0.207574 5.86249 
1.06923 0.225498 6.31075 
1.06923 0.225498 6.31075 
-1.17805 0.208761 5.6786 
-1.13006 0.210469 5.69248 
-0.378566 0.213714 5.8292 
-1.41818 0.208705 5.61518 
-0.41712 0.224309 5.82363 
0.782092 0.241217 6.29185 
-1.4016 0.221255 5.62538 
-0.45272 0.228471 5.83398 
-0.064099 0.232553 5.85633 
-0.064099 0.232553 5.85633 
1.8419 0.385269 11.1803 
0.76451 0.265796 6.28254 
0.76451 0.265796 6.28254 
1.15806 0.268055 6.36259 
-1.17842 0.247061 5.66508 
-0.458624 0.259474 5.79776 
0.47515 0.267558 5.95718 
-1.81403 0.256819 5.53379 
0.228668 0.267407 5.77286 
-0.714759 0.282605 5.76581 
1.59878 0.31192 6.42831 
-0.971963 0.289259 5.71754 
-0.971963 0.289259 5.71754 
-0.574242 0.294086 5.77914 
1.00507 0.32051 6.38047 
0.912375 0.326237 6.42166 
0.912375 0.326237 6.42166 
0.347597 0.296612 5.69465 
-1.42561 0.297184 5.61342 
0.194374 0.311881 5.76271 
0.194374 0.311881 5.76271 
0.229893 0.318617 5.82367 
-0.468168 0.322506 5.79055 
-0.107254 0.328672 5.8513 
1.25342 0.360286 6.3923 
-1.4645 0.320231 5.62021 
-1.26213 0.322749 5.64583 
-0.419727 0.331501 5.77675 
-1.32193 0.335858 5.64029 
-1.50251 0.339154 5.60609 
0.794201 0.364339 6.34042 
-1.16134 0.344023 5.67661 
-0.775737 0.356108 5.92966 
0.888061 0.410663 6.52462 
1.34939 0.408559 6.43115 
-1.46983 0.358977 5.61534 
-1.11642 0.365897 5.68321 
-1.18719 0.372425 5.66845 
-1.18719 0.372425 5.66845 
-1.4242 0.371533 5.61386 
1.02586 0.42624 6.44367 
1.39387 0.423477 6.45253 
-1.48696 0.378339 5.60378 
1.18377 0.443872 6.55027 
16.3232 4.47742 74.2329 
-1.24106 0.387826 5.66252 
-0.725136 0.423878 5.7591 
-0.725136 0.423878 5.7591 
-0.642931 0.421522 5.75827 
-1.48738 0.415273 5.61008 
1.08249 0.484389 6.53739 
-0.570536 0.435153 5.77387 
-0.967145 0.43295 5.69014 
1.28428 0.496789 6.48701 
1.61084 0.495791 6.49189 
1.61084 0.495791 6.49189 
-0.946113 0.453083 5.71315 
-1.15449 0.453002 5.68221 
1.56808 0.504641 6.3855 
-1.526 0.449304 5.59088 
1.26591 0.517485 6.39092 
-1.26884 0.463144 5.65842 
-0.798065 0.466858 5.71649 
-0.999765 0.475004 5.71528 
-0.506975 0.49198 5.78617 
0.811959 0.696827 8.19962 
1.53499 0.594661 7.02519 
-0.987209 0.497781 5.773 
-0.767793 0.496206 5.75146 
1.33189 0.555951 6.46813 
0.375648 0.501481 5.66326 
-1.16383 0.513231 5.67307 
0.111685 0.521486 5.81914 
-0.953887 0.521801 5.71019 
-1.39643 0.521315 5.61506 
-1.4756 0.523764 5.60498 
-1.4756 0.523764 5.60498 
-1.4756 0.523764 5.60498 
0.0718066 0.543175 5.79175 
0.0718066 0.543175 5.79175 
-0.910603 0.542899 5.72268 
-0.910603 0.542899 5.72268 
-1.28604 0.539524 5.64287 
-1.11906 0.551179 5.65705 
1.08488 0.626486 6.44376 
-1.66944 0.547947 5.57957 
-1.17706 0.55434 5.66778 
-1.7212 0.551157 5.55384 
0.0305593 0.579348 5.85423 
0.633957 0.629001 6.30486 
1.31489 0.643874 6.47854 
1.29206 0.648373 6.50696 
-1.36167 0.576328 5.63744 
-1.23039 0.581078 5.65968 
1.29173 0.659682 6.44426 
1.29173 0.659682 6.44426 
-1.45352 0.583636 5.60908 
-1.52091 0.594889 5.62157 
0.226642 0.606591 5.73772 
-1.75071 0.592615 5.55546 
1.80865 0.701536 6.55994 
-0.73021 0.61882 5.77089 
-1.13302 0.615086 5.6804 
-0.553104 0.627828 5.7853 
-1.85134 0.608546 5.53958 
-1.31511 0.621278 5.65249 
-0.86932 0.632199 5.72817 
-1.45106 0.620039 5.60962 
0.115869 0.647571 5.82633 
-1.77456 0.620337 5.53577 
-0.52478 0.647039 5.77393 
-0.52478 0.647039 5.77393 
1.74854 0.729127 6.5291 
0.736855 0.726644 6.37993 
0.193251 0.172538 1.59016 
1.05667 0.72969 6.46061 
1.7851 0.720272 6.38456 
-1.67449 0.63272 5.57268 
-1.2081 0.645186 5.67055 
-1.16597 0.651362 5.66438 
0.49505 0.711709 6.06976 
-0.929877 0.678524 5.71317 
0.607267 0.748095 6.30819 
0.281652 0.71019 5.99064 
-1.62944 0.668336 5.57953 
-1.84494 0.669219 5.53137 
0.685557 0.764163 6.28435 
1.95419 0.801628 6.60494 
1.4777 0.801544 6.50413 
-1.87471 0.691324 5.53044 
-1.39281 0.701278 5.62934 
-0.545125 0.722159 5.79523 
0.54911 0.770078 6.07238 
-0.74333 0.732562 5.74338 
0.243737 0.762488 5.86567 
-0.556464 0.754347 5.75964 
-0.626275 0.7578 5.76363 
-0.626275 0.7578 5.76363 
0.516974 0.796956 6.0508 
1.14915 0.851871 6.47103 
-1.68855 0.752104 5.58496 
0.202379 0.801584 5.9806 
0.160225 0.795562 5.87979 
0.983574 0.872551 6.40249 
-1.38164 0.771455 5.64186 
0.0677524 0.796411 5.8662 
0.265616 0.796211 5.84701 
-1.16623 0.775547 5.6628 
1.00972 0.876287 6.40447 
1.14035 0.881582 6.41173 
0.946749 0.874902 6.35964 
-1.35928 0.794159 5.63554 
-1.20978 0.797645 5.65876 
1.5389 0.841455 5.90577 
0.987019 0.914639 6.39245 
1.10134 0.922276 6.43526 
-1.55822 0.810083 5.60298 
1.73366 0.947025 6.54669 
1.30311 0.944008 6.49729 
0.963113 0.92869 6.36554 
-1.42046 0.829938 5.61818 
-1.30467 0.835418 5.64695 
1.2047 0.944348 6.37213 
0.391967 0.880577 5.94276 
0.36902 0.887963 5.96462 
1.551 0.972883 6.50334 
-1.38237 0.851442 5.64117 
-0.808487 0.860476 5.71072 
0.31008 0.881821 5.86448 
-0.647324 0.87347 5.7666 
0.686776 0.93398 6.17329 
0.871387 0.953917 6.29408 
-1.30947 0.858556 5.64889 
-0.584247 0.872905 5.76629 
-0.584247 0.872905 5.76629 
0.667322 0.943955 6.2071 
-0.83267 0.879064 5.71874 
0.535929 0.952797 6.08639 
0.794514 0.962216 6.11839 
-1.70325 0.877579 5.55 
1.59566 1.02551 6.48481 
1.62373 1.02924 6.50172 
-1.39253 0.894743 5.6386 
-1.54106 0.891793 5.59414 
-1.35244 0.902401 5.64476 
0.463964 0.94699 5.91968 
0.21821 0.946077 5.89426 
-1.3082 0.911251 5.64956 
0.990013 1.02465 6.31617 
1.41827 1.05832 6.4859 
0.134041 0.960624 5.88853 
0.134041 0.960624 5.88853 
-1.59823 0.918094 5.59189 
-0.705244 0.941039 5.7508 
-1.25037 0.935655 5.65806 
0.406666 0.998642 6.0394 
0.406666 0.998642 6.0394 
0.521729 1.00898 6.02913 
1.00363 1.06501 6.36424 
1.00363 1.06501 6.36424 
1.59525 1.09608 6.5151 
1.66645 1.08726 6.47734 
0.355076 1.00127 5.94842 
1.54126 1.10556 6.50251 
-0.818723 0.98976 5.81032 
-0.765317 0.97455 5.72591 
0.810417 1.06217 6.22677 
0.810417 1.06217 6.22677 
1.12958 1.093 6.39844 
-1.2853 0.966038 5.62907 
0.693205 1.05737 6.15553 
-0.850111 1.00142 5.79084 
1.02542 1.09751 6.33306 
-0.787622 0.994273 5.74144 
-0.746453 0.99841 5.73789 
-0.746453 0.99841 5.73789 
1.48691 1.1294 6.48904 
0.610846 1.07 6.11317 
-1.04345 1.01237 5.69418 
0.187778 1.04554 5.88747 
-0.639502 1.02892 5.7797 
-0.639502 1.02892 5.7797 
0.117731 1.06025 5.88197 
0.421318 1.08413 6.00097 
1.35252 1.17531 6.48956 
-0.938347 1.03092 5.68707 
0.892914 1.14021 6.27221 
0.383112 1.0817 5.93846 
0.209015 1.08785 5.93299 
0.1048 1.08942 5.90244 
0.401451 1.09978 5.9548 
0.434861 1.11507 6.00321 
1.62781 1.21598 6.52728 
-1.24472 1.06216 5.68089 
-1.24472 1.06216 5.68089 
-0.242202 1.0824 5.79997 
-0.192698 1.09295 5.85185 
-0.192698 1.09295 5.85185 
0.6877 1.1612 6.20641 
1.38684 1.21474 6.47301 
0.415406 1.12412 5.97387 
-0.753284 1.08619 5.74377 
-1.49333 1.06278 5.61884 
-1.39119 1.07315 5.65053 
0.361732 1.1416 6.01591 
2.99765 1.97185 10.3026 
0.165013 1.1397 5.90217 
-1.26565 1.04973 5.30036 
-1.14116 1.10298 5.68349 
1.15714 1.24681 6.38094 
1.34886 1.03629 5.29988 
-1.66517 1.10482 5.57223 
1.65316 1.248 6.26682 
1.69954 1.3037 6.5321 
1.0143 1.26411 6.31002 
-1.39391 1.13242 5.64265 
1.52781 1.30375 6.48516 
0.634896 1.24065 6.13352 
1.71948 1.32102 6.52041 
-1.69028 1.13569 5.58207 
-1.66458 1.13846 5.57126 
-0.927234 1.16664 5.71884 
0.226721 1.21188 5.92745 
-1.4219 1.15592 5.61561 
-0.880528 1.16997 5.69641 
0.650647 1.26217 6.13901 
-0.264753 1.19617 5.8008 
-1.87577 1.15423 5.53654 
-0.962148 1.18981 5.7171 
-1.36021 1.17533 5.6331 
-1.36021 1.17533 5.6331 
-1.34072 1.18129 5.63049 
0.895858 1.31409 6.24217 
0.411139 1.26721 6.01957 
1.81621 1.39967 6.58851 
1.47186 1.37866 6.44901 
1.56886 1.37421 6.44345 
1.56886 1.37421 6.44345 
0.373528 1.28315 5.998 
0.403147 1.29548 6.01281 
-0.232819 1.25683 5.8226 
1.60885 1.85327 8.47481 
-1.24969 1.23468 5.66554 
-0.370817 1.26403 5.79395 
-0.370817 1.26403 5.79395 
-0.370817 1.26403 5.79395 
-1.37903 1.35136 6.15983 
-0.948338 1.53273 7.06947 
443.62 295.349 1288.24 
6582.07 4393.21 18797.5 
7488.75 5780.86 24132 
11700.1 7822.53 32984.6 
-1.33463 2.19991 9.21383 
28123.9 18469.8 79449.6 
13986.3 10853.7 42366.1 
-9665.49 -84427.4 2.3384e+006 
-1.07716 -1.52271 6.79621 
-1.35533 -1.17464 5.5508 
0.310595 -1.22486 5.81203 
0.34475 -1.22654 5.82498 
-1.40608 -1.14628 5.54795 
-1.40608 -1.14628 5.54795 
-1.01147 -1.15808 5.61222 
-1.01147 -1.15808 5.61222 
-0.773203 -1.12455 5.66791 
0.359394 -1.15966 5.85124 
0.502415 -1.07778 5.86934 
1.85657 -1.13717 6.18493 
-1.21113 -1.03027 5.60546 
-1.11872 -1.01692 5.60994 
-1.18098 -0.970054 5.60498 
-0.00163853 -0.981924 5.8083 
0.340505 -0.980886 5.83182 
-0.910583 -0.884478 5.66467 
-0.821604 -0.884182 5.67529 
-1.17147 -0.871471 5.61228 
0.499962 -0.904677 5.90445 
0.499962 -0.904677 5.90445 
-0.649377 -0.854632 5.71812 
0.513111 -0.592601 4.15431 
-1.10113 -0.820748 5.62865 
-0.926585 -0.826135 5.66978 
-0.926585 -0.826135 5.66978 
0.499852 -0.847261 5.89607 
1.10148 -0.849941 6.03513 
-0.00261353 -0.810842 5.80959 
-0.00261353 -0.810842 5.80959 
-0.737977 -0.781415 5.70892 
0.0177551 -0.79324 5.8148 
1.10863 -0.82554 6.05859 
-0.552676 -0.755124 5.73054 
0.0333949 -0.768443 5.83178 
-0.362522 -0.735626 5.77578 
-0.0950709 -0.723602 5.82057 
0.0288524 -0.707823 5.81533 
0.0288524 -0.707823 5.81533 
0.362703 -0.713691 5.86282 
0.6879 -0.781437 6.52117 
-0.381489 -0.675201 5.78321 
-0.525621 -0.653791 5.75077 
-0.525621 -0.653791 5.75077 
-0.458373 -0.644061 5.76414 
-0.458373 -0.644061 5.76414 
-0.10776 -0.630189 5.80407 
1.42547 -0.663628 6.15217 
-0.701087 -0.611517 5.74197 
0.392472 -0.622362 5.92554 
0.392472 -0.622362 5.92554 
0.537894 -0.612826 5.84501 
-1.01183 -0.583661 5.67454 
-0.356274 -0.597198 5.80239 
-1.32471 -0.562625 5.6194 
0.367197 -0.586787 5.89145 
-0.414158 -0.569745 5.79128 
-1.25342 -0.541918 5.59587 
-0.272671 -0.548336 5.79633 
-0.272671 -0.548336 5.79633 
-0.898767 -0.531223 5.69572 
-0.898767 -0.531223 5.69572 
-0.290371 -0.507722 5.77048 
1.53978 -0.542183 6.24574 
1.50177 -0.573285 6.63544 
-0.998809 -0.470454 5.67426 
-0.998809 -0.470454 5.67426 
-0.902409 -0.465952 5.6998 
1.11045 -0.486311 6.00682 
-1.09232 -0.451501 5.67595 
-0.929854 -0.444514 5.68677 
-0.215029 -0.452633 5.82654 
-1.7379 -0.425221 5.51342 
35.6726 -10.1633 111.95 
1.02159 -0.437419 6.07392 
1.02159 -0.437419 6.07392 
-1.87604 -0.389342 5.49873 
-0.392315 -0.406459 5.8342 
-1.40946 -0.389125 5.59224 
0.397698 -0.389509 5.86191 
0.397698 -0.389509 5.86191 
0.106924 -0.381911 5.85526 
0.118167 -0.403801 6.14542 
0.150694 -0.382224 5.87972 
0.150694 -0.382224 5.87972 
0.198246 -0.382661 5.88131 
-0.808694 -0.362139 5.7221 
0.414798 -0.365254 5.91533 
-0.0192672 -0.330152 5.84348 
-1.86606 -0.300811 5.48539 
-0.0465325 -0.304713 5.82887 
-0.598269 -0.2935 5.76351 
-0.161793 -0.295838 5.80426 
-0.731226 -0.266982 5.74895 
0.161709 -0.24058 5.87259 
0.161709 -0.24058 5.87259 
-0.791089 -0.201628 5.72327 
1.36486 -0.217448 6.28983 
-0.178099 -0.188976 5.84949 
1.50271 -0.204383 6.26226 
0.00816146 -0.188417 5.87883 
0.162577 -0.181414 5.88472 
-0.306177 -0.171171 5.81574 
-0.687143 -0.161454 5.75746 
-0.119429 -0.136804 5.85331 
0.419111 -0.118229 5.89622 
0.015895 -0.102313 5.85919 
0.391653 -0.0934042 5.89358 
-1.15167 -0.0879907 5.66212 
-1.15167 -0.0879907 5.66212 
1.15142 -0.0897347 6.20262 
0.484047 -0.0695114 5.88676 
-0.0338042 -0.0540654 5.88842 
0.0444699 -0.0238663 5.8885 
-0.254879 -0.0189866 5.8171 
-0.453309 -0.0145202 5.76934 
-0.377953 0.0104857 5.82159 
-0.326068 0.00943991 5.83608 
0.0107201 0.00893359 5.74312 
-0.575982 0.0247598 5.77292 
-0.183282 0.0317241 5.83339 
-0.474091 0.037618 5.84424 
0.142435 0.0598782 5.85289 
-1.04044 0.0691576 5.69516 
-1.04044 0.0691576 5.69516 
-0.792873 0.081818 5.7438 
-1.1533 0.0834902 5.66908 
-0.743967 0.0952858 5.75819 
-0.712984 0.104978 5.74852 
-0.712984 0.104978 5.74852 
-0.106311 0.110476 5.84145 
0.305474 0.129196 5.89252 
0.305474 0.129196 5.89252 
0.41296 0.155223 5.83113 
-0.0579695 0.166459 5.84998 
0.288648 0.172222 5.81324 
0.321216 0.174531 5.85674 
0.0109264 0.183108 5.83123 
0.0109264 0.183108 5.83123 
0.418725 0.192926 5.81452 
-0.781743 0.201413 5.75237 
1.30646 0.228506 6.47593 
-1.81541 0.21397 5.52992 
0.354675 0.247377 5.74014 
0.729936 0.266753 6.22623 
0.0020542 0.26039 5.87723 
-1.7472 0.260564 5.54785 
-0.671536 0.275592 5.76027 
0.0797585 0.288955 5.8358 
-0.46434 0.28902 5.77623 
0.284014 0.293036 5.79431 
0.284014 0.293036 5.79431 
1.17129 0.328151 6.36121 
0.0327938 0.30362 5.87274 
-0.724662 0.307559 5.76448 
-0.724662 0.307559 5.76448 
0.494943 0.3148 5.69669 
-0.966426 0.320788 5.71007 
-1.01488 0.331488 5.71117 
1.67269 0.473291 8.27783 
0.943769 0.395809 6.44646 
-1.38396 0.358136 5.62833 
-1.32632 0.36415 5.63161 
-1.15742 0.371669 5.67561 
-1.44683 0.382331 5.60638 
-1.44683 0.382331 5.60638 
-1.18509 0.400027 5.65521 
-0.517673 0.417077 5.79285 
-0.62227 0.425253 5.76935 
-1.48785 0.417821 5.59497 
-1.48785 0.417821 5.59497 
1.00774 0.479812 6.45481 
1.05757 0.501304 6.45089 
0.870461 0.518884 6.52801 
1.30173 0.512495 6.43266 
0.754918 0.577528 7.06497 
0.754918 0.577528 7.06497 
-0.589299 0.481189 5.7565 
-1.41858 0.470502 5.6383 
-1.41858 0.470502 5.6383 
-0.561898 0.489571 5.78206 
1.71318 0.592334 6.48643 
-1.33595 0.497902 5.65165 
-1.33595 0.497902 5.65165 
0.578873 0.559498 6.37811 
0.955597 0.578037 6.59558 
1.16194 0.583236 6.51478 
0.833231 0.593431 6.56452 
1.37945 0.586735 6.46963 
1.37945 0.586735 6.46963 
-1.09359 0.523724 5.67675 
-0.994574 0.525274 5.6928 
0.456649 0.54613 5.84721 
-0.730051 0.545593 5.7676 
-0.730051 0.545593 5.7676 
-0.628614 0.561959 5.74549 
-1.47791 0.555755 5.61812 
1.01502 0.644414 6.52765 
-0.861278 0.56955 5.73258 
0.861429 0.647445 6.46198 
-1.53186 0.569056 5.59551 
-0.556699 0.586386 5.77255 
-0.601025 0.586719 5.76476 
1.02011 0.675966 6.45656 
-0.913274 0.603488 5.71717 
1.04714 0.681629 6.45058 
1.48526 0.69566 6.56174 
0.947823 0.688727 6.44126 
-0.584298 0.627691 5.77871 
-1.08248 0.633174 5.69086 
-0.939503 0.655339 5.69802 
-309715 -70489.1 1.7276e+006 
0.0694084 0.699543 5.8586 
-1.16554 0.691284 5.67451 
-1.61813 0.692299 5.57568 
1.38779 0.820554 6.4648 
-1.54865 0.7198 5.59367 
-0.517219 0.755263 5.76803 
0.988422 0.836592 6.36729 
0.0853972 0.759614 5.76927 
-1.62945 0.753717 5.59675 
-0.717213 0.781217 5.76627 
-0.717213 0.781217 5.76627 
0.484553 0.81979 6.03289 
-0.805841 0.79835 5.65518 
0.175553 0.817418 5.80064 
-0.970556 0.811372 5.69777 
-0.970556 0.811372 5.69777 
-1.72289 0.802276 5.55579 
-0.667425 0.854569 5.80373 
-0.667425 0.854569 5.80373 
0.181658 0.879398 5.89705 
1.52257 0.977205 6.51264 
0.520733 0.904757 6.0099 
0.783001 0.946723 6.23067 
0.783001 0.946723 6.23067 
0.351141 0.909093 5.95801 
0.439892 0.980699 6.37227 
-1.01575 0.905262 5.70441 
0.380595 0.94141 5.94454 
0.409712 0.962297 5.98301 
-0.596511 0.949866 5.7684 
0.206503 0.976651 5.90633 
1.42295 1.08933 6.4573 
-0.89889 0.989009 5.72616 
-1.26079 0.987592 5.64732 
0.268464 1.0266 5.88872 
0.342233 1.0355 5.93314 
-1.30367 0.994314 5.6496 
0.504704 1.01264 5.69158 
0.961643 1.12967 6.32315 
0.450664 1.08597 5.98452 
1.38742 1.17796 6.45248 
-0.739522 1.0533 5.73411 
0.655238 1.13807 6.12807 
0.378272 1.10942 5.9644 
0.361005 1.1399 6.00849 
0.746676 1.19074 6.16572 
0.850217 1.21075 6.23226 
-1.73795 1.09974 5.56662 
0.356803 1.17743 5.95287 
-0.979325 1.1337 5.70616 
0.811161 1.25212 6.192 
-1.49879 1.14145 5.61043 
0.272777 1.21006 5.95693 
0.967388 1.30332 6.28199 
0.555875 1.28939 6.13708 
-1.24573 1.20091 5.69595 
-0.176216 1.26062 5.84707 
-0.176216 1.26062 5.84707 
-39800.5 37655.5 234949 
23739.6 15941.4 64988 
-2.94314 -4.16331 15.8198 
-75118 -53450.3 246845 
0.529842 -1.18025 5.87638 
