ply
format ascii 1.0
element vertex 871
property float x
property float y
property float z
end_header
-56962.6 -148910 575520 
0.805751 -1.2352 4.78056 
0.996154 -0.980521 3.93736 
-0.32186 -0.66982 2.73486 
0.810682 -1.1677 4.83715 
0.710419 -1.02158 4.23328 
1.90369 -1.48837 6.23923 
1.02166 -0.774935 3.34555 
1.91312 -1.47339 6.31055 
-0.705204 -1.99734 8.74332 
0.853819 -1.15547 5.08805 
0.665416 -0.910194 3.99871 
4.07456 -2.26933 9.99858 
0.846357 -1.04285 4.74285 
0.733829 -0.590328 2.74145 
-0.296677 -0.731034 3.45537 
1.15123 -1.37953 6.5106 
0.979222 -1.17034 5.58458 
0.979222 -1.17034 5.58458 
-0.44004 -0.558963 2.73868 
-0.329945 -0.685851 3.47598 
-0.307994 -0.576071 3.00079 
-31863.3 -61689.9 331974 
0.779927 -1.04384 5.43442 
-54281.5 -120186 693456 
-0.200796 -0.426552 2.38222 
-2573.34 -6655.36 39723.4 
-0.33076 -0.850522 5.06651 
-0.856735 -2.20907 13.1533 
-21857.1 -57507.3 354049 
-0.254382 -0.661718 4.04083 
-0.254382 -0.661718 4.04083 
-0.254382 -0.661718 4.04083 
-0.254382 -0.661718 4.04083 
-0.489379 -1.27678 7.79293 
-48307.3 -100680 640132 
-0.366863 -0.74481 4.61536 
-0.447435 -0.417595 2.73748 
0.431801 -0.84043 5.47822 
0.873724 -0.725651 4.7254 
0.778112 -0.647476 4.213 
-251.889 -620.746 4068.11 
-0.283056 -0.69117 4.5335 
-0.283056 -0.69117 4.5335 
-251.889 -620.746 4068.11 
-1.01549 -2.48804 16.3095 
0.713707 -0.591549 3.94189 
-0.175547 -0.367022 2.50303 
-0.93093 -1.98863 13.4985 
0.702681 -0.708339 4.86977 
-0.22822 -0.580605 4.16576 
-0.100167 -0.250194 1.801 
-0.141121 -0.35757 2.56735 
-0.27038 -0.525917 3.88411 
-0.427276 -0.840071 6.18815 
0.490507 -0.691079 5.241 
0.490507 -0.691079 5.241 
0.675377 -0.722773 5.46622 
0.675377 -0.722773 5.46622 
0.675377 -0.722773 5.46622 
954.199 -701.397 5246.41 
0.910494 -0.649151 4.92398 
-2.79159 -5.99798 45.6823 
-0.695844 -1.48516 11.3271 
-1955.55 -4223.35 32394.6 
-0.695844 -1.48516 11.3271 
-0.695844 -1.48516 11.3271 
-0.328785 -0.783834 6.00255 
-0.103567 -0.239492 1.84503 
-0.103567 -0.239492 1.84503 
-0.103567 -0.239492 1.84503 
0.70019 -0.723022 5.56219 
0.396805 -0.669725 5.21699 
0.435598 -0.744529 5.79569 
0.49094 -0.512329 4.01799 
0.445558 -0.64723 5.10657 
0.512907 -0.664768 5.23246 
-0.1455 -0.466701 3.73408 
-0.205297 -0.69034 5.48931 
-0.0895619 -0.551019 4.43735 
-0.0895619 -0.551019 4.43735 
0.566864 -0.650496 5.31247 
0.623819 -0.643589 5.25837 
-0.231689 -0.50999 4.20805 
-0.313656 -0.695614 5.73056 
-0.12175 -0.262661 2.17673 
-0.231689 -0.50999 4.20805 
-0.231689 -0.50999 4.20805 
-0.439236 -0.977115 8.04442 
0.787603 -0.558726 4.62472 
-0.203363 -0.514048 4.32473 
-0.215132 -0.486051 4.14936 
-0.269311 -0.610494 5.20813 
-0.172413 -0.386423 3.30438 
-0.102232 -0.224244 1.92641 
-0.269311 -0.610494 5.20813 
-0.172413 -0.386423 3.30438 
-0.275533 -0.389649 3.34901 
-0.200211 -0.470771 4.26088 
0.53861 -0.450494 4.14452 
42232.8 -13328.1 130228 
-0.238391 -0.427401 4.20445 
-0.111176 -0.19081 1.90036 
0.563548 -0.47266 4.6646 
0.488743 -0.456388 4.80005 
0.431986 -0.431607 4.65533 
0.768878 -0.425768 4.57943 
0.174325 -0.40032 4.47745 
-0.178926 -0.397661 4.4817 
0.32329 -0.396529 4.55062 
0.787911 -0.38724 4.36873 
334424 -114360 1.49181e+006 
-0.305494 -0.410902 5.15528 
0.823303 -0.210645 2.82655 
0.823303 -0.210645 2.82655 
0.421618 -0.323037 4.4106 
-0.433552 -0.201467 2.85377 
0.389382 -0.289968 4.2457 
0.191406 -0.112324 1.81866 
-0.43424 -0.15907 2.86159 
0.40346 -0.230978 4.08272 
0.834274 -0.127843 2.90218 
-0.0774873 -0.191095 4.17512 
0.101676 -0.0441686 1.05829 
0.0434638 -0.150655 3.71372 
0.0434638 -0.150655 3.71372 
0.228174 -0.137405 3.43165 
0.160709 -0.0992477 3.22231 
0.0449871 -0.0762987 3.52974 
0.0334911 -0.05673 3.2432 
0.0232775 -0.05412 3.26786 
-0.000254194 -0.0405674 3.47341 
-0.000254194 -0.0405674 3.47341 
-237637 -16822.4 1.69622e+006 
0.410835 -0.023935 3.54949 
0.124885 -0.0130606 2.6543 
0.124885 -0.0130606 2.6543 
0.124885 -0.0130606 2.6543 
-0.191162 -0.0116912 4.24973 
-0.10056 -0.00276802 4.1739 
-0.10056 -0.00276802 4.1739 
0.389832 0.00703685 3.47955 
0.113419 0.00836031 2.44123 
-0.678674 0.0103928 5.32687 
0.535274 0.0126917 3.99629 
0.535274 0.0126917 3.99629 
0.0956586 0.0147405 2.64938 
0.590943 0.0252249 2.73784 
0.820937 0.0251715 2.79576 
0.526503 0.033258 3.95676 
0.238973 0.0308006 2.85345 
31025.8 1974.41 173050 
22484.3 1451.5 125413 
0.0474208 0.0514361 3.10796 
0.101321 0.0427678 2.40602 
0.0384568 0.0126821 0.737696 
0.313276 0.0554466 3.12971 
0.0863122 0.0534606 2.51214 
0.65379 0.0708964 2.63957 
-0.0280651 0.0949446 3.84455 
-0.127334 0.127708 4.45481 
0.0613388 0.0980842 3.02168 
-1.92674 0.453968 13.8362 
0.751083 0.158941 3.66532 
2500.94 481.292 12254.1 
0.667282 0.14812 3.09839 
0.270829 0.146884 3.08978 
0.524141 0.166184 3.08501 
-0.326517 0.209089 3.91443 
-0.34436 0.215707 3.76214 
0.56497 0.174406 2.97403 
0.628327 0.339879 5.96801 
-0.0706932 0.112628 1.66816 
0.6517 0.164796 2.49348 
0.665112 0.171361 2.51556 
0.553549 0.18026 2.4971 
0.683017 0.18515 2.5721 
0.507159 0.177774 2.50753 
210976 71904.8 1.12853e+006 
0.550766 0.185712 2.52635 
0.546317 0.18312 2.44493 
0.546317 0.18312 2.44493 
0.512734 0.181071 2.35807 
0.685019 0.193072 2.51727 
-33276.9 39420.6 567520 
0.562855 0.187629 2.34193 
0.518592 0.204494 2.51874 
0.518592 0.204494 2.51874 
0.697383 0.483128 5.72624 
-0.114564 0.393789 4.25431 
-0.0226302 -0.0214119 -0.240504 
-0.34288 0.740031 7.89857 
0.559659 0.3149 3.33556 
-0.304312 0.448323 4.67251 
0.585238 0.367708 3.64893 
-0.603676 0.278354 2.69698 
267167 153246 1.61256e+006 
0.523551 0.294382 2.61029 
-0.291616 0.258482 2.28016 
1.18531 1.04561 9.14355 
11138 12262.5 105098 
39638.7 21945.1 182858 
0.502208 0.395715 2.84725 
-1.05693 0.930508 6.65947 
-0.116492 0.368347 2.58208 
0.220057 0.325629 2.09527 
0.289802 0.416577 2.65153 
-0.0954913 0.362192 2.1332 
0.429667 0.617719 3.58993 
0.105764 0.316537 1.79469 
-0.0182698 0.392294 2.17455 
0.208357 0.324706 1.78859 
0.166871 0.260419 1.43398 
0.184492 0.287319 1.58291 
0.213769 0.323594 1.77666 
0.213769 0.323594 1.77666 
0.213769 0.323594 1.77666 
0.207465 0.323867 1.7543 
0.185247 0.289793 1.56892 
0.238579 0.372673 2.01836 
0.214314 0.33712 1.78538 
0.245096 0.384755 2.03866 
0.290629 0.456538 2.41862 
0.187571 0.29546 1.56423 
0.292392 0.441895 2.17881 
36796 54381.9 281885 
0.00601123 0.340027 1.64797 
0.00601123 0.340027 1.64797 
0.00601123 0.340027 1.64797 
6.66401 -7.93218 30.8592 
-59990.1 -141884 570992 
0.872426 -1.10779 4.5581 
0.491057 -0.622342 2.56194 
0.904549 -1.1046 4.59994 
0.982981 -1.15451 4.82513 
0.495137 -0.580141 2.42633 
0.495137 -0.580141 2.42633 
-0.318261 -0.691189 2.90887 
-17845 -39335.9 169784 
-0.484912 -1.05439 4.43632 
-2.77648 -6.05979 25.4777 
1.51611 -1.21859 5.30678 
0.371663 -0.429907 1.89914 
-0.4297 -0.617082 2.73883 
0.981462 -0.784177 3.69546 
0.561888 -0.590823 2.80028 
0.561888 -0.590823 2.80028 
-0.292032 -0.689761 3.39301 
-94910 -235095 1.26741e+006 
170154 -96834.1 494753 
-46222.2 -113524 595550 
-46222.2 -113524 595550 
-0.277247 -0.667329 3.39415 
-46222.2 -113524 595550 
-95965.2 -238284 1.28435e+006 
0.828601 -0.919822 4.86728 
-0.264209 -0.713813 3.82653 
-19426 -53314.2 292783 
-33968.3 -66540.8 367541 
-0.326625 -0.627683 3.43513 
-126417 -255985 1.52243e+006 
0.765402 -0.779518 4.37811 
-37386.8 -95837.4 559956 
-3267.87 -8301.13 47549.7 
-31727.3 -82672.1 497919 
-0.134339 -0.335826 1.92208 
-0.626706 -1.58608 9.0586 
-0.15131 -0.311253 1.83982 
-8189.19 -14817.2 88307.5 
-0.243034 -0.426433 2.5284 
-0.214829 -0.398141 2.35678 
-74597.7 -148024 964192 
-0.26903 -0.630142 3.85447 
-12946.1 -30964.8 193021 
-0.123453 -0.28443 1.74537 
-0.26903 -0.630142 3.85447 
-65134 -145318 967123 
-0.408095 -0.87592 5.539 
-0.408095 -0.87592 5.539 
-0.297966 -0.637917 4.03615 
-439.639 -1061.06 6750.93 
-0.41565 -0.99971 6.35548 
-0.270261 -0.587731 3.86645 
-0.270261 -0.587731 3.86645 
-68403.2 -154019 1.04615e+006 
-0.270261 -0.587731 3.86645 
-68403.2 -154019 1.04615e+006 
-0.270261 -0.587731 3.86645 
-26110.2 -59430.8 412130 
-0.195869 -0.432519 2.96523 
-0.270829 -0.544347 3.8578 
-18950.9 -39176.4 281334 
-85542.8 -179834 1.32671e+006 
0.828525 -0.641104 4.56054 
0.515186 -0.731255 5.32504 
0.553762 -0.735853 5.35308 
0.678659 -0.768955 5.5768 
0.712612 -0.773456 5.60785 
0.746051 -0.779072 5.645 
0.728371 -0.68413 4.9553 
0.881507 -0.659173 4.7648 
-0.2583 -0.532187 3.93184 
-4.42098 -9.25805 68.1553 
-4.42098 -9.25805 68.1553 
0.0604732 -0.578687 4.36018 
0.0604732 -0.578687 4.36018 
-0.309269 -0.433337 3.31139 
-0.296118 -0.415401 3.173 
-6246.28 -9079.1 68762.2 
-0.250621 -0.35458 2.70035 
0.0870721 -0.534413 4.41216 
-0.444442 -0.334476 2.84572 
-0.444442 -0.334476 2.84572 
-0.271437 -0.441442 3.77103 
-3489.77 -5883.18 50455.8 
-0.284887 -0.434375 3.76467 
-23151.5 -36606.7 318223 
-0.141263 -0.20566 1.81031 
-0.138168 -0.201399 1.77206 
-0.12617 -0.185616 1.62801 
-0.114429 -0.505286 4.51297 
0.159224 -0.479133 4.3269 
0.809452 -0.308001 2.83114 
0.860018 -0.378602 3.45979 
0.564902 -0.44071 4.03154 
0.652008 -0.471359 4.34242 
-0.16024 -0.492643 4.56932 
0.101354 -0.448725 4.22005 
0.101354 -0.448725 4.22005 
0.573419 -0.453192 4.20443 
0.573419 -0.453192 4.20443 
0.664149 -0.460462 4.40513 
0.664149 -0.460462 4.40513 
0.814656 -0.465142 4.43066 
0.820847 -0.285913 2.87548 
0.108407 -0.410768 4.1941 
0.512375 -0.473973 4.83699 
0.824447 -0.504195 5.17589 
0.193621 -0.398492 4.20133 
0.136503 -0.425033 4.49538 
0.0923475 -0.306835 3.25716 
0.664758 -0.415602 4.41595 
0.168309 -0.360995 3.927 
0.512706 -0.65747 7.18133 
0.512706 -0.65747 7.18133 
0.347743 -0.184745 2.04802 
-0.104031 -0.416853 4.57272 
0.471518 -0.388792 4.47662 
0.505633 -0.364915 4.47371 
0.505633 -0.364915 4.47371 
0.112055 -0.320131 4.01951 
0.0723598 -0.30884 4.02668 
0.763598 -0.349891 4.49273 
0.744393 -0.361019 4.7872 
-0.0511142 -0.307924 4.2346 
-0.0510377 -0.308345 4.23949 
0.559209 -0.292779 4.08671 
0.882045 -0.377216 5.43398 
0.679343 -0.291643 4.19083 
129141 -32748.7 471036 
0.821928 -0.335142 4.8486 
0.510327 -0.26192 4.21706 
0.102083 -0.228179 3.80524 
0.480922 -0.226267 3.86782 
0.284209 -0.202136 3.835 
0.083775 -0.0541069 1.04953 
0.41838 -0.226578 4.28899 
0.218526 -0.180334 3.69014 
0.84825 -0.251849 5.39578 
0.207596 -0.154787 3.5155 
0.207596 -0.154787 3.5155 
0.252301 -0.158126 3.58513 
0.393615 -0.15263 3.70731 
0.501183 -0.133553 4.12901 
0.201852 -0.0982158 3.19219 
0.16037 -0.078366 2.54566 
0.140551 -0.0782787 3.16673 
-0.128151 -0.110375 4.36882 
0.513825 -0.0882161 4.05249 
0.172482 -0.0573541 2.9213 
0.172482 -0.0573541 2.9213 
0.172482 -0.0573541 2.9213 
0.172482 -0.0573541 2.9213 
0.169502 -0.0376552 2.87126 
0.175242 -0.036733 2.78162 
-0.0508801 -0.0430712 3.86742 
0.705112 -0.0232471 3.03032 
0.119495 -0.0179401 2.86524 
0.119495 -0.0179401 2.86524 
43570 -1159.78 132262 
0.0817732 -0.012621 3.07288 
0.15225 0.00275059 2.41449 
0.115224 0.00442058 2.76426 
0.161119 0.00490702 2.40972 
0.497019 0.0079862 3.84991 
0.29244 0.011522 3.15074 
0.207967 0.0134047 2.83346 
0.0325593 0.0155651 3.31229 
0.100112 0.0154637 2.90317 
0.0701083 0.0138271 2.18923 
0.0653136 0.0168492 3.10974 
0.352841 0.017212 3.33265 
-0.0170356 0.0190593 3.61626 
0.634914 0.0370084 4.20832 
0.074167 0.0436859 2.8638 
0.230802 0.052849 2.78245 
0.455266 0.0618514 3.32499 
0.181614 0.0519226 2.48357 
-0.175552 0.113652 5.09956 
0.472619 0.0929258 3.73509 
0.262751 0.0773047 2.91113 
0.401188 0.113978 3.65637 
0.134262 0.0659697 1.94962 
0.0807778 0.0670523 1.90663 
-0.0329031 0.207383 4.81578 
0.817987 0.13203 2.93018 
0.0931183 0.0693965 1.47596 
0.299032 0.1536 3.2674 
0.615947 0.211308 4.42184 
0.0364901 0.0349694 0.689879 
-0.0751993 0.278897 4.9957 
0.415088 0.235275 4.17859 
0.635735 0.176907 2.95077 
-0.0857779 0.327596 5.02242 
0.606453 0.347322 5.40793 
0.550501 0.263067 3.43637 
0.516073 0.195137 2.47116 
0.918618 0.531335 6.46575 
-0.975211 0.975255 10.7348 
1.50803 1.05893 11.426 
-0.10946 0.386085 3.93941 
0.520902 0.269759 2.71398 
-0.105118 0.369725 3.33669 
0.546304 0.335731 2.95 
23251.8 13739.6 127745 
1.64322 1.53191 13.4635 
0.515991 0.375996 2.90024 
-0.2957 0.558436 4.30302 
0.516096 0.379512 2.69024 
0.264646 0.283317 1.95271 
0.221958 0.302114 2.03721 
0.497667 0.352476 2.32155 
2.03483 0.986584 6.01302 
-2.02088 0.989738 5.66266 
0.105291 0.3263 1.68455 
0.322626 1.02814 5.30589 
0.129086 0.403587 2.08325 
0.333626 0.530449 2.67062 
0.577708 0.917363 4.61999 
0.41776 0.662924 3.33914 
0.271449 0.432156 2.17507 
0.214298 0.332047 1.6712 
0.247521 0.382318 1.92575 
0.538636 0.829165 4.18014 
0.538636 0.829165 4.18014 
0.332599 0.531668 2.6199 
0.588058 0.937015 4.62087 
0.432644 0.690702 3.40461 
0.972674 1.55091 7.64703 
0.542771 0.869181 4.22182 
0.393123 0.630334 3.06076 
0.815375 1.30326 6.3331 
-48029 -108911 454317 
1.99608 -1.59545 6.85766 
1.96043 -1.5748 6.75227 
1.99608 -1.59545 6.85766 
-0.423438 -0.63656 2.76657 
-0.441036 -0.608961 2.74903 
-0.555665 -1.11906 5.07478 
-0.325606 -0.652098 2.9609 
-0.309219 -0.649876 2.94854 
-9295.41 -23951.8 111961 
-4.87566 -7.88559 36.2581 
-4.87566 -7.88559 36.2581 
-0.438463 -0.579723 2.73409 
-0.326875 -0.568826 2.75765 
-0.314135 -0.609569 2.99725 
-15497.9 -30468.6 150376 
-0.444478 -0.876656 4.40167 
-4.20341 -8.31954 41.7403 
0.860449 -0.909955 4.62111 
-0.296105 -0.650681 3.43618 
-5861.05 -13089.6 69858.3 
-138224 -322024 1.88008e+006 
-50819.7 -115897 644727 
-0.316216 -0.56976 3.10716 
-0.221206 -0.393617 2.1537 
-12886.9 -22938.8 132374 
-221725 -407403 2.51758e+006 
-8212.01 -17037.8 97874.4 
-0.293989 -0.598547 3.41252 
0.964352 -0.693701 4.17074 
0.879248 -0.72926 4.45048 
-150794 -157123 995563 
0.950676 -0.743568 4.72487 
-0.344581 -0.426607 2.77216 
0.801805 -0.715127 4.6556 
0.794267 -0.672158 4.62301 
0.330491 -0.22015 1.61663 
168962 -169097 1.3008e+006 
-0.311966 -0.437171 3.33624 
-0.298597 -0.418929 3.1957 
-0.252421 -0.357164 2.71642 
0.407726 -0.648749 5.13273 
-0.199269 -0.568699 4.72734 
0.178398 -0.513647 4.38501 
0.342793 -0.542861 4.64498 
0.847934 -0.548682 4.69519 
0.209936 -0.470131 4.24069 
5943.4 -13183.9 120739 
2433.41 -5613.86 51144.3 
-0.0112439 -0.489278 4.41843 
0.352255 -0.515951 4.84693 
0.00264671 -0.469538 4.43629 
0.00264671 -0.469538 4.43629 
0.78786 -0.499213 4.67748 
-0.110643 -0.465416 4.52728 
-0.0472789 -0.193552 1.88806 
-0.110643 -0.465416 4.52728 
-46803.3 -225083 2.38342e+006 
0.773278 -0.455846 4.60972 
-0.21733 -0.392334 4.13239 
-0.124668 -0.21869 2.3219 
0.202356 -0.384975 4.11646 
0.180309 -0.354331 3.79213 
0.19149 -0.319554 3.60636 
0.634442 -0.381788 4.28895 
-0.160389 -0.392152 4.56098 
-0.157977 -0.387331 4.50245 
0.246452 -0.325339 4.13697 
0.749987 -0.350058 4.52979 
0.514125 -0.308167 4.05018 
-1.44489 -0.856513 12.4681 
-1.44489 -0.856513 12.4681 
-0.0833872 -0.279052 4.2586 
-0.170856 -0.560687 8.58152 
-0.0833872 -0.279052 4.2586 
-0.273532 -0.28072 4.32265 
-0.194003 -0.272182 4.37977 
-0.195591 -0.273935 4.41072 
-0.194003 -0.272182 4.37977 
0.713196 -0.270817 4.33865 
0.333761 -0.118937 1.993 
-0.226233 -0.273993 4.45441 
0.341079 -0.220924 3.96121 
-0.110988 -0.286175 5.80222 
-0.2816 -0.213171 4.26763 
0.0569013 -0.055097 1.15636 
0.312928 -0.321621 6.77635 
0.19722 -0.162454 3.58277 
0.278475 -0.166788 3.64623 
0.278149 -0.166439 3.63939 
0.220768 -0.14661 3.48718 
-0.280668 -0.176206 4.22329 
-0.280668 -0.176206 4.22329 
-0.275146 -0.146998 4.35694 
0.127232 -0.108588 3.36782 
0.157569 -0.0614362 2.87107 
-0.423226 -0.0520354 2.58658 
0.809759 -0.0467253 2.8264 
0.147238 -0.0296842 2.66995 
0.147238 -0.0296842 2.66995 
0.147238 -0.0296842 2.66995 
0.295709 -0.0377561 3.38766 
0.283772 -0.0369561 3.26675 
-0.107639 -0.0398638 4.11223 
0.156881 -0.00950045 2.51271 
0.687476 -0.00503633 2.9779 
0.687476 -0.00503633 2.9779 
0.253002 -0.00294191 3.06575 
-0.0454277 -0.00431811 3.81877 
-0.302172 0.00347071 4.15009 
89326.8 5083.99 629716 
0.00649274 0.0611378 3.54877 
0.0952785 0.0503936 2.30529 
0.650472 0.11059 4.53633 
0.944483 0.0928793 3.38562 
0.247939 0.0876723 2.81615 
0.639871 0.10849 3.40435 
0.621682 0.126617 3.30287 
0.611899 0.158578 4.18651 
0.0531465 0.130393 3.25305 
-0.0862655 0.255314 4.99231 
-0.128075 0.279589 5.26665 
0.103512 0.0869435 1.57232 
0.574221 0.207418 3.57399 
0.394894 0.270448 4.44271 
-0.110174 0.32398 4.92972 
0.571416 0.18597 2.66124 
659.579 736.386 10982.5 
0.397212 0.145313 1.74182 
0.450559 0.162746 1.93973 
0.781493 0.485095 5.94858 
89035 55217.2 743685 
0.522448 0.243489 2.56886 
-0.306658 0.506151 5.49414 
-0.306658 0.506151 5.49414 
0.70474 0.241217 2.50104 
0.733121 0.246083 2.52962 
0.580212 0.342007 3.4813 
828.741 841.805 8603.52 
0.577568 0.34547 3.38346 
0.522901 0.308293 2.77477 
23575.1 25813.8 221210 
55970.4 31459.5 258247 
0.279442 0.294072 2.15055 
7102.87 7293.65 54324 
0.282638 0.326466 2.38548 
0.237942 0.319474 2.26607 
0.26982 0.363498 2.5756 
0.475025 0.355251 2.40755 
285407 144348 739408 
-0.326274 -0.665024 2.73556 
-0.46467 -0.608789 2.71015 
0.812218 -0.640918 2.90195 
1.04877 -0.829753 3.75206 
1.31538 -1.04953 4.72605 
1.04877 -0.829753 3.75206 
-79952.3 -155289 741802 
1.03323 -0.822165 3.78298 
0.695869 -0.547311 2.5329 
1.03323 -0.822165 3.78298 
0.862089 -0.679999 3.14245 
-0.611986 -0.737768 3.45506 
-47870.1 -93495 452502 
160620 -203004 1.0547e+006 
0.859011 -0.946853 4.74549 
-0.324745 -0.569798 2.9281 
0.749398 -0.923676 5.80795 
0.45803 -0.839848 5.48702 
0.11753 -0.5908 3.92434 
0.192498 -0.682004 4.59094 
0.19191 -0.682009 4.59125 
0.663833 -0.701603 4.73868 
0.735047 -0.786287 5.51205 
0.446545 -0.758561 5.33477 
0.962239 -0.612028 4.30461 
-0.303168 -0.461795 3.43607 
0.388551 -0.664887 5.22549 
0.35773 -0.604354 4.75308 
0.181297 -0.52988 4.3114 
-0.289921 -0.42152 3.82487 
-0.287671 -0.378831 3.49845 
-0.134577 -0.483412 4.55052 
0.763115 -0.503899 4.87175 
-0.212566 -0.445068 4.38599 
0.927594 -0.431746 4.34533 
-0.246046 -0.400077 4.17392 
0.940399 -0.389128 4.21211 
0.807109 -0.413107 4.50066 
0.727089 -0.399735 4.6643 
-0.0194177 -0.360736 4.29591 
0.870228 -0.313451 3.76117 
0.206681 -0.343438 4.24445 
0.664595 -0.349788 4.41297 
0.808579 -0.22097 2.84908 
0.873046 -0.215282 3.52598 
0.0884617 -0.192269 3.72048 
0.192593 -0.42711 8.28883 
0.0884617 -0.192269 3.72048 
0.960654 -0.244426 4.80975 
0.0905755 -0.165318 3.64935 
0.0135853 -0.115589 3.69272 
0.521587 -0.0616121 2.62247 
-0.0711168 -0.0609549 4.00256 
-0.477479 -0.0353473 3.77666 
0.827709 -0.0192946 2.79329 
-0.109102 -0.0183347 4.10338 
-0.141103 -0.0074343 4.29776 
0.0444775 0.00432372 3.19425 
0.374653 0.0338764 3.44546 
0.539904 0.0618386 4.22996 
0.610949 0.0562854 2.54389 
-0.341091 0.123431 3.8411 
-0.225907 0.152381 4.73964 
0.224813 0.0968176 2.69511 
0.584575 0.192046 4.44305 
0.225423 0.143846 2.76919 
-0.103926 0.295978 5.08876 
0.393346 0.267899 4.42587 
-0.261079 0.268604 3.56632 
-0.123678 0.366361 4.56879 
0.660767 0.204951 2.41387 
-0.303286 0.390885 4.34212 
0.298265 0.318813 2.99533 
4.65034 3.22161 23.5584 
0.329664 0.322037 2.21425 
-0.0995991 0.363109 2.48879 
-0.0624916 0.243742 1.64591 
0.271964 0.327646 2.18578 
0.298851 0.326461 2.1698 
-0.101423 0.360345 2.31395 
0.039435 0.333802 1.62389 
0.0576718 0.328932 1.60333 
-0.235934 -0.668037 2.85344 
-0.237598 -0.801462 5.11647 
0.758693 -0.866129 5.62695 
0.112206 -0.646205 4.56522 
-0.336156 -0.4776 3.4653 
-0.336156 -0.4776 3.4653 
0.00913569 -0.602223 4.53389 
0.225696 -0.576088 4.42228 
0.225696 -0.576088 4.42228 
-0.27974 -0.500995 3.87302 
0.249923 -0.554553 4.53131 
0.249923 -0.554553 4.53131 
0.249923 -0.554553 4.53131 
-100708 -214344 2.19058e+006 
-0.0269333 -0.494746 4.40084 
-0.251012 -0.423568 4.03163 
-1.33843 -2.31316 21.8671 
0.0573244 -0.39604 4.3067 
-0.334957 -0.309017 3.52895 
-0.25094 -0.340577 4.36129 
0.153644 -0.288186 3.95268 
-0.0372183 -0.215131 3.85366 
-0.414119 -0.163959 3.28891 
0.866855 -0.171848 4.08931 
0.0610701 -0.127006 3.5934 
0.215004 -0.0756988 3.11212 
0.248022 -0.0733346 3.18411 
-0.0911631 -0.0896533 4.05941 
0.476343 -0.00960922 2.31741 
-0.116293 0.0246606 4.3513 
0.0923396 0.0225555 2.70958 
1.20344 0.087326 5.89344 
0.111422 0.0470598 1.99598 
0.703736 0.129622 4.71476 
-0.383421 0.118279 3.75778 
0.124835 0.080411 1.87657 
0.124835 0.080411 1.87657 
0.22206 0.121093 2.67121 
0.0728372 0.0608192 1.20528 
0.170618 0.111131 2.27977 
0.572712 0.160403 3.12454 
0.481133 0.171634 2.94072 
-0.157004 0.362643 5.05001 
0.827842 0.448004 5.88505 
0.534994 0.217302 2.68745 
-0.148399 0.345204 4.22124 
0.708374 0.215563 2.51982 
0.373191 0.400708 4.45812 
1.2594 1.32901 14.9154 
-89265.9 -100556 -961458 
0.569957 0.2962 3.33272 
0.59794 0.377705 3.95337 
-0.31294 0.466317 4.20381 
0.29165 0.338709 3.00717 
0.102525 0.120064 1.06233 
0.115417 0.137064 1.20607 
0.540737 0.297879 2.59811 
0.559897 0.351912 2.93567 
0.273308 0.329566 2.63947 
0.20267 0.240963 1.94067 
0.246408 0.292201 2.35582 
0.513406 0.427223 3.24869 
-0.0990685 0.357067 2.10502 
-0.0990685 0.357067 2.10502 
-22870.2 34467.9 169910 
16.4381 -13.36 55.5366 
1.87346 -1.50391 6.28974 
-41845.2 -71522.6 504093 
0.680517 -0.662532 4.91671 
-0.315942 -0.431594 3.4388 
-0.273739 -0.421845 3.42409 
0.216932 -0.442631 4.28525 
-0.114536 -0.340748 4.2705 
0.510981 -0.341542 4.24868 
-0.0380737 -0.308894 4.17469 
-0.206673 -0.318371 4.48667 
-0.167286 -0.233654 4.27982 
-68714.7 -104952 1.98539e+006 
-0.167286 -0.233654 4.27982 
-0.112439 -0.231458 4.20181 
0.044473 -0.196213 3.82419 
0.54677 -0.147536 3.53311 
0.809925 -0.0745121 2.89452 
0.805776 -0.0740948 2.87964 
0.755096 -0.0499472 4.80562 
0.047542 -0.0209374 3.31052 
0.132636 -0.00758533 2.46827 
0.445259 0.0439514 3.75189 
0.445259 0.0439514 3.75189 
0.445259 0.0439514 3.75189 
0.445259 0.0439514 3.75189 
0.0821782 0.044191 2.59449 
0.120166 0.0574653 3.56432 
0.686329 0.191506 2.46965 
0.748449 0.389487 5.01525 
-0.309846 0.571363 6.53983 
-0.167234 0.392825 4.23504 
-0.306373 0.587053 5.24703 
0.527165 0.312238 2.52815 
-0.314921 0.609077 4.85264 
0.323234 0.215114 1.59104 
13315 6123.38 33121.5 
-0.0715627 -0.649029 4.58004 
0.783317 -0.641932 4.69849 
0.041984 -0.426361 4.2249 
-0.291395 -0.374996 3.823 
-0.137566 -0.170247 1.76279 
0.263134 -0.400986 4.18391 
-0.289092 -0.334131 4.24459 
-0.0995145 -0.186111 4.34987 
0.153856 -0.139166 3.55278 
0.299653 -0.0577553 3.45433 
0.299653 -0.0577553 3.45433 
0.366496 -0.0455649 3.58568 
179143 -15994.2 2.05144e+006 
-0.266873 -0.0176995 2.33459 
0.19838 0.0630128 2.5628 
0.743707 0.177075 3.35273 
-0.190668 0.319514 5.45378 
0.534312 0.202392 2.82246 
0.540278 0.292079 2.92597 
0.540278 0.292079 2.92597 
0.540278 0.292079 2.92597 
0.540278 0.292079 2.92597 
0.529734 0.367864 2.88687 
0.487547 0.324134 2.27415 
0.468258 0.36295 2.53113 
0.790354 -1.14489 4.55088 
-0.384065 -0.979437 4.31135 
-56495.6 -147501 775654 
-0.318058 -0.381636 3.36492 
-0.226149 -0.479236 4.24471 
0.557433 -0.51582 4.75746 
-0.142213 -0.430347 4.62456 
0.738678 -0.0218987 4.34795 
-0.1563 -0.010109 4.21309 
0.228181 0.0257521 2.91927 
-0.0101559 0.101108 3.76561 
-0.0101559 0.101108 3.76561 
0.0955753 0.0544848 1.88433 
0.0955753 0.0544848 1.88433 
35983.9 6014.05 150483 
0.0624125 0.0599898 1.18796 
0.726693 0.165898 2.80218 
2.00323 1.70072 21.6142 
0.229473 0.291172 2.12614 
0.698792 -0.802341 5.43783 
0.187223 -0.230169 3.93181 
-0.0238354 -0.219932 4.12531 
-0.0238354 -0.219932 4.12531 
0.758445 -0.0458053 2.90745 
0.758445 -0.0458053 2.90745 
0.137555 0.0265108 2.29999 
0.137555 0.0265108 2.29999 
-0.284754 0.0548703 2.80846 
3.76398 0.272801 11.8631 
0.547489 0.220062 3.13163 
0.816358 -1.06844 4.6068 
0.823794 -1.12557 5.30368 
0.744414 -0.997536 5.91221 
0.839723 -0.527772 3.14346 
0.275779 -0.648467 4.61972 
247133 -89808 2.38555e+006 
78455.7 -8618.31 248569 
1.67786 0.230889 5.6354 
-0.115056 0.357858 3.59253 
0.500537 0.630539 6.21562 
0.638812 -0.0809047 4.87087 
0.274817 0.0406781 3.08307 
-0.280759 -0.225658 3.53945 
-0.180325 -0.15449 4.35417 
211145 32792.3 1.20526e+006 
-0.253153 -0.47415 4.05615 
1.44662 -0.318937 6.78918 
0.517143 -0.0838891 3.61819 
-0.0159944 0.0526025 3.13914 
0.187537 0.151218 1.50189 
