ply
format ascii 1.0
element vertex 558
property float x
property float y
property float z
end_header
0.604667 -0.588386 2.37725 
-0.544256 -0.638732 2.78785 
0.796997 -0.603613 2.57923 
0.680931 -0.508418 2.21834 
-0.223978 -0.63956 2.83695 
0.450262 -0.599088 2.65479 
-0.532054 -0.636268 2.87863 
0.471993 -0.572661 2.62037 
-0.544666 -0.587745 2.78562 
0.48247 -0.563095 2.71429 
0.401585 -0.525306 2.75826 
-0.184245 -0.466312 2.80832 
-0.184245 -0.466312 2.80832 
-0.513596 -0.491257 3.01739 
0.228385 -0.433766 2.84919 
0.50511 -0.408436 2.7003 
-0.180502 -0.420471 2.6497 
-0.180502 -0.420471 2.6497 
0.406221 -0.399509 2.77773 
-0.161699 -0.399183 2.83214 
-0.206508 -0.393884 2.85547 
0.272645 -0.374201 2.86443 
0.272645 -0.374201 2.86443 
0.359204 -0.372756 2.85794 
0.359204 -0.372756 2.85794 
0.60956 -0.419395 3.25707 
-0.160371 -0.363534 2.69215 
0.36874 -0.368502 2.87474 
0.221658 -0.365166 2.86886 
0.342733 -0.35237 2.77139 
0.252437 -0.358232 2.8537 
0.286944 -0.361683 2.87485 
-0.109184 -0.353028 2.83078 
-0.0615411 -0.354049 2.84006 
-0.0615411 -0.354049 2.84006 
0.314669 -0.350086 2.89076 
0.345588 -0.345847 2.86412 
-0.163376 -0.349373 2.8527 
-0.163376 -0.349373 2.8527 
0.475439 -0.326663 2.75671 
-0.13973 -0.340811 2.84665 
-0.15441 -0.337728 2.85213 
-0.151141 -0.332984 2.85217 
-0.249717 -0.350639 2.90819 
-0.140206 -0.317523 2.85181 
0.36624 -0.299575 2.7855 
1.09968 -0.803606 8.32708 
-0.169309 -0.295347 2.87463 
0.351256 -0.285933 2.86068 
0.300498 -0.272199 2.89842 
0.273736 -0.266056 2.89897 
0.475817 -0.252735 2.79591 
0.113689 -0.258839 2.90228 
-0.119984 -0.254273 2.86305 
0.208911 -0.250689 2.9004 
0.505493 -0.237397 2.76638 
0.282786 -0.210107 2.90898 
0.272957 -0.197388 2.92207 
0.292589 -0.161817 2.91241 
-0.0594844 -0.132055 2.89976 
0.0301339 -0.118566 2.91605 
0.0301339 -0.118566 2.91605 
0.196306 -0.117086 2.92473 
0.144989 -0.0906189 2.92211 
0.0331371 -0.0633874 2.93665 
0.0241835 -0.0515955 2.9229 
0.0147787 -0.0490288 2.92855 
-0.00687249 -0.0334811 2.92407 
-0.00687249 -0.0334811 2.92407 
0.343929 -0.0137304 2.92266 
0.136446 -0.0156437 2.94081 
0.136446 -0.0156437 2.94081 
0.136446 -0.0156437 2.94081 
1.16495 -0.0353781 4.40025 
0.33293 0.0123254 2.9266 
0.13457 0.00870873 2.94726 
0.397217 0.0181144 2.92258 
0.395027 0.0336813 2.92614 
0.249802 0.0354038 2.94488 
-0.610199 0.0239261 3.81685 
0.0402739 0.0508028 2.97757 
0.121357 0.0530422 2.96242 
0.125463 0.0511383 3.13071 
0.300077 0.0583721 2.95013 
0.0983774 0.0641517 2.98026 
-0.0268767 0.076446 2.99455 
-0.439672 0.0945409 3.79493 
-0.453588 0.0983138 3.80126 
-0.0905558 0.0883677 2.98954 
0.267213 0.150728 3.00342 
-0.268797 0.1659 3.1767 
-0.29864 0.179561 3.22156 
0.321913 0.182449 3.03352 
-0.0773244 0.362983 4.32664 
-0.0808971 0.0470859 0.757221 
0.365266 0.264961 2.99601 
-0.0862033 0.297678 3.2081 
-0.208385 0.303732 3.17669 
-3.08051 1.29001 13.5052 
0.738603 0.38522 4.18999 
-1.84726 1.66556 14.5543 
-1626.54 775.195 6814.43 
-0.598367 0.731914 6.18587 
0.401945 0.363434 3.09408 
-1366.35 845.504 6649.99 
-0.644442 0.840432 6.44038 
-1746.52 938.46 6707.19 
-1084.58 889.612 6116.65 
-836.339 763.111 5154.23 
-836.339 763.111 5154.23 
-0.162972 0.518104 3.61409 
-1723.05 1087.6 7259.58 
-1157.52 981.424 6452.77 
-0.600563 1.08415 6.69904 
0.354635 0.530493 3.22965 
-1888.26 1216.16 7379.99 
-17.1092 23.0873 137.37 
-1733.36 1342.65 7711.83 
-1116.49 1163.57 6481.72 
-486.876 663.034 3664.55 
-486.876 663.034 3664.55 
-0.17434 0.674988 3.91705 
-1653.74 1330.66 7282.07 
0.220333 0.653876 3.5088 
-0.75759 1.5839 8.23625 
1.02796 0.738451 4.40257 
0.458299 0.701366 3.26215 
0.604403 -0.730934 2.70553 
-0.291813 -0.720626 2.99161 
-0.610444 -0.729829 2.8716 
0.616606 -0.517772 2.10179 
0.954421 -0.738363 3.08377 
0.506521 -0.610408 2.5553 
0.528335 -0.610644 2.57022 
0.631878 -0.496382 2.36526 
0.563465 -0.443093 2.10988 
0.462245 -0.502927 2.68502 
-0.200896 -0.527322 2.7781 
-0.265419 -0.496959 2.57706 
0.468286 -0.468555 2.65159 
-0.242527 -0.473816 3.18872 
-0.204895 -0.468643 2.81569 
-0.204895 -0.468643 2.81569 
-0.216286 -0.453959 2.82844 
-0.206053 -0.438267 2.83144 
-0.200235 -0.41998 2.64364 
-0.333266 -0.0324963 1.1156 
-0.245133 -0.414679 2.43698 
-0.207867 -0.409295 2.84675 
0.281155 -0.388699 2.85788 
0.299693 -0.387732 2.85108 
0.355184 -0.39014 2.86532 
0.371019 -0.390109 2.86576 
0.383728 -0.388156 2.85387 
0.416021 -0.380243 2.7912 
0.510635 -0.370302 2.72623 
-0.194628 -0.391621 2.84553 
0.0362777 -0.375167 2.81909 
0.0362777 -0.375167 2.81909 
-0.282485 -0.394371 2.90463 
0.0532127 -0.342449 2.82692 
-0.498047 -0.388644 3.08059 
-0.498047 -0.388644 3.08059 
-0.215412 -0.344248 2.87719 
-0.226768 -0.341037 2.88811 
-0.0768116 -0.318922 2.84411 
0.10543 -0.318101 2.86717 
0.391138 -0.298268 2.76032 
0.421304 -0.295849 2.77254 
-0.104926 -0.307459 2.84853 
0.0659403 -0.302888 2.84416 
0.0659403 -0.302888 2.84416 
0.383018 -0.295369 2.77728 
0.383018 -0.295369 2.77728 
0.424909 -0.285523 2.78356 
0.424909 -0.285523 2.78356 
0.511134 -0.280736 2.74475 
0.0715047 -0.279667 2.85331 
0.310796 -0.278928 2.88529 
0.130879 -0.270374 2.85577 
0.0862285 -0.270585 2.87264 
0.120462 -0.262385 2.84763 
0.217686 -0.265257 2.97181 
-0.0698859 -0.259308 2.85295 
0.308623 -0.247216 2.88314 
-0.0697699 -0.24255 2.39985 
0.331371 -0.23149 2.8841 
0.331371 -0.23149 2.8841 
0.078671 -0.230287 2.88409 
0.0494345 -0.222243 2.88825 
0.483713 -0.2108 2.80709 
0.452252 -0.208697 2.86261 
-0.0392892 -0.210246 2.88737 
0.390994 -0.196844 2.82154 
0.458844 -0.187153 2.79523 
0.488516 -0.187671 2.84187 
0.354872 -0.174744 2.88547 
0.0751559 -0.174011 2.89506 
0.358199 -0.161861 2.84371 
0.219425 -0.152893 2.92202 
0.291194 -0.151454 2.93279 
0.173717 -0.142118 2.91688 
0.173009 -0.128417 2.91681 
0.173009 -0.128417 2.91681 
0.208301 -0.128529 2.92557 
0.314729 -0.116899 2.91234 
0.361241 -0.0889629 2.92473 
0.186271 -0.0904801 2.9268 
-0.593653 -0.131483 3.6467 
0.128056 -0.0727353 2.92376 
0.375058 -0.0566135 2.91261 
0.173405 -0.0584379 2.93092 
0.173405 -0.0584379 2.93092 
0.174165 -0.0391717 2.94159 
0.186073 -0.0396742 2.9374 
-0.19617 -0.0252555 3.11258 
0.120831 -0.0190244 2.9489 
0.120831 -0.0190244 2.9489 
0.0742179 -0.0118497 2.9457 
0.185932 0.00229785 2.9386 
0.120896 0.00452797 2.95664 
0.198557 0.00508216 2.94476 
0.382791 0.0143016 2.92116 
0.277092 0.0150695 2.94168 
0.219156 0.0159629 2.95391 
0.0239426 0.0149278 2.96439 
0.0989564 0.0163311 2.96217 
0.057837 0.0168585 2.965 
0.204527 0.0173057 2.93303 
0.31548 0.0210217 2.93375 
-0.0201384 0.0172193 2.95367 
0.0717982 0.0465542 2.96341 
0.249476 0.060329 2.96352 
0.220123 0.0646008 2.97114 
-0.106653 0.0694513 2.9694 
0.376673 0.0827175 2.93606 
0.273006 0.0846198 2.9739 
0.330956 0.101231 2.97211 
0.208864 0.103004 2.98627 
0.122625 0.105855 2.99127 
0.823776 0.160751 6.0317 
0.193134 0.14394 3.01177 
0.278479 0.149331 2.99974 
0.414991 0.153393 2.95095 
-0.0478831 0.17375 3.0582 
0.301046 0.178943 3.00292 
0.409068 0.143833 8.40856 
-0.05388 0.203859 3.086 
0.338336 0.203772 3.00244 
0.433686 0.261547 3.03485 
-0.546822 0.509792 5.5144 
0.404497 0.29406 3.06502 
-0.0898911 0.3185 3.24377 
-1889.39 831.415 7485.09 
-0.104977 0.370734 3.34083 
-1206.69 680.255 5989.45 
0.377984 0.360668 3.09933 
-369.163 319.83 2567.91 
-1151.83 743.855 5895.64 
-0.61317 0.847381 6.36904 
-0.225914 0.423259 3.27448 
-89568.9 55352 -742766 
-815.276 757.367 5141.49 
-1726.52 1070.08 7153.91 
-1056.4 941.729 6178.98 
0.474918 0.471914 3.7475 
0.36323 0.501675 3.19041 
-1736.8 1155.04 7339.39 
-5.13013 7.24272 42.4271 
-1094.79 1196.05 6337.41 
-919.544 1078.14 5720.78 
-1.79706 3.177 16.8673 
-28.5026 22.0531 119.006 
-0.592306 1.26901 6.60742 
0.242347 0.742118 3.5997 
0.426199 0.682006 3.28737 
0.435014 0.699665 3.2971 
0.781564 -0.60416 2.64826 
0.781564 -0.60416 2.64826 
-0.443568 -0.656651 2.73042 
-0.31084 -0.622983 2.81018 
0.561544 -0.442963 2.14334 
-0.328804 -0.560723 2.51263 
-0.29042 -0.546336 2.50987 
0.494711 -0.513696 2.63077 
-0.243008 -0.479251 2.58735 
0.596452 -0.417954 2.55547 
0.527145 -0.426868 2.641 
0.544888 -0.414314 2.67662 
-0.381421 -0.474768 2.91787 
0.472475 -0.411219 2.71167 
0.473132 -0.390168 2.72132 
-0.282663 -0.394773 2.90549 
0.231777 -0.359949 2.8709 
-0.12453 -0.338121 2.81542 
0.114712 -0.332344 2.83881 
0.212192 -0.330848 2.84781 
0.503612 -0.314457 2.75354 
0.141175 -0.316219 2.84997 
-0.0107542 -0.315824 2.84785 
0.212699 -0.304604 2.8846 
-0.00157879 -0.302132 2.85319 
-0.00157879 -0.302132 2.85319 
0.475352 -0.290316 2.78463 
-0.0743541 -0.293509 2.85359 
-0.0743541 -0.293509 2.85359 
0.474671 -0.269059 2.79156 
-0.157759 -0.27516 2.86879 
0.139487 -0.266408 2.85224 
0.418872 -0.243255 2.79697 
-0.106091 -0.245347 2.85922 
0.173343 -0.226477 2.89004 
0.473016 -0.210115 2.81733 
0.365769 -0.212175 2.84037 
-0.0616632 -0.189288 2.8889 
-0.0616632 -0.189288 2.8889 
0.471168 -0.168543 2.82567 
0.255538 -0.161033 2.92066 
-0.0559447 -0.145569 2.9953 
-0.205675 -0.147808 3.10276 
0.160931 -0.13216 2.91673 
0.22575 -0.1325 2.91917 
0.18629 -0.122718 2.92111 
0.107595 -0.0940868 2.91294 
0.159836 -0.0639138 2.92243 
0.160953 -0.034015 2.93066 
0.160953 -0.034015 2.93066 
0.160953 -0.034015 2.93066 
0.263575 -0.0303415 2.96471 
0.184494 -0.012445 2.94153 
0.245931 0.000109093 2.94265 
0.11946 0.0652865 2.97368 
0.428287 0.0829812 2.94981 
-15186.2 -419.381 -44116.3 
0.266806 0.0985711 2.97936 
0.434594 0.123383 2.93815 
-0.0552655 0.158332 3.02827 
-0.0763694 0.164089 3.03154 
0.203061 0.173074 3.0244 
0.268839 0.192655 3.00763 
-0.0704769 0.205236 3.08853 
0.183601 0.211345 3.05088 
0.39803 0.25809 3.01641 
-0.175115 0.287215 3.1155 
-0.175115 0.287215 3.1155 
-1.23824 0.892684 9.43427 
0.299498 0.309799 3.11261 
-0.99363 0.87502 8.44113 
-1682.01 888.873 6998.61 
-0.646409 0.808447 6.19411 
-1530.35 799.174 6008.92 
0.406815 0.442393 3.03204 
0.346153 0.471506 3.17658 
-1770.1 986.835 6715.83 
-0.60389 1.01475 6.58104 
-1818.68 1143.04 7210.34 
-1818.68 1143.04 7210.34 
-0.676044 1.15692 7.19482 
-0.124501 0.078186 0.547441 
-1.75489 1.2086 7.11322 
1.63885 0.751229 4.8972 
-1.76427 3.11746 16.5282 
-0.000848043 0.911172 4.20606 
-0.351925 0.499421 2.52665 
0.923467 1.02109 5.49958 
-0.308442 -0.676642 3.21897 
0.661614 -0.513997 2.35051 
0.652426 -0.509715 2.37151 
0.652426 -0.509715 2.37151 
-0.518772 -0.627052 2.8453 
0.441159 -0.541535 2.68403 
0.48361 -0.52332 2.64473 
0.374286 -0.447614 2.84715 
0.242062 -0.432842 2.85038 
0.0776763 -0.416044 2.74596 
0.118493 -0.419689 2.8226 
0.393137 -0.406288 2.77006 
0.382371 -0.397212 2.8252 
0.2431 -0.402904 2.85662 
0.590705 -0.36369 2.61516 
-0.264935 -0.399956 2.88335 
0.217742 -0.363301 2.87816 
0.118891 -0.349381 2.83799 
-0.227345 -0.326491 2.89682 
-0.249272 -0.326351 2.91732 
-0.0890174 -0.303918 2.85658 
0.44781 -0.28487 2.81868 
-0.144593 -0.292779 2.8678 
0.581283 -0.257781 2.69167 
-0.176402 -0.27965 2.88357 
0.447844 -0.235849 2.83156 
-0.0163797 -0.242999 2.88734 
0.139052 -0.230667 2.86858 
0.434004 -0.218893 2.8377 
0.0657245 -0.150039 2.89774 
0.0657245 -0.150039 2.89774 
0.070101 -0.133071 2.92168 
0.00575625 -0.0913824 2.92044 
-20572.9 7500.1 -105157 
0.516838 -0.0489269 2.56725 
-0.518989 -0.0895253 3.55302 
-0.518989 -0.0895253 3.55302 
0.0364231 0.00438269 2.96491 
0.325094 0.0355516 2.94286 
0.383159 0.0523539 2.95824 
-0.148006 0.0985319 3.02087 
0.254081 0.113222 2.99294 
0.394438 0.139597 2.9662 
0.248387 0.164075 3.00674 
-0.0644846 0.18062 3.05569 
0.270218 0.191997 3.01806 
-0.242821 0.243095 3.28501 
-0.0858222 0.254318 3.15884 
-0.225122 0.285925 3.19491 
-60.6894 27.7644 310.315 
-1514.74 855.218 6800.23 
-410.434 371.972 2854.04 
-0.145163 0.534404 3.63496 
-0.164266 0.591106 3.75822 
-1.02405 1.64561 9.86921 
-1.73491 1.19458 7.02172 
-1.65485 2.91972 15.3992 
0.109824 0.860825 3.9587 
0.156329 0.848086 3.89189 
-0.406928 0.728343 3.18359 
-0.13435 -0.439026 2.80758 
0.386833 -0.429037 2.82376 
0.0681593 -0.400265 2.82469 
-0.291406 -0.412615 2.89816 
-0.291406 -0.412615 2.89816 
0.00289798 -0.376697 2.83099 
0.144471 -0.368424 2.82807 
0.144471 -0.368424 2.82807 
-0.214833 -0.378327 2.86797 
0.157045 -0.346421 2.83811 
0.157045 -0.346421 2.83811 
0.157045 -0.346421 2.83811 
-0.020929 -0.321545 2.85232 
-0.186237 -0.30731 2.88061 
0.0354157 -0.263471 2.86595 
-0.289641 -0.267956 2.94901 
-0.172589 -0.227985 2.89792 
0.111212 -0.210709 2.88764 
-0.0335005 -0.162727 2.89679 
0.045869 -0.103552 2.92094 
0.205388 -0.0717209 2.93941 
0.232232 -0.0669932 2.93869 
0.0969064 0.0247901 2.95837 
0.164523 0.0694834 2.96344 
0.445224 0.0927932 2.94834 
-0.33227 0.093892 3.22537 
0.203282 0.132177 3.0082 
0.203282 0.132177 3.0082 
0.253508 0.14296 2.99909 
0.184106 0.153641 3.00791 
0.22967 0.153124 3.0136 
-0.0976934 0.224374 3.10136 
0.425679 0.24167 3.00934 
-0.112708 0.261016 3.19039 
0.262356 0.287329 3.0951 
-0.258182 0.410605 4.28079 
0.458737 0.301918 2.99506 
-0.216565 0.482773 4.54278 
-0.24369 0.35861 3.25259 
0.30905 0.365428 3.11699 
-1413.8 828.192 6601.35 
0.33502 0.410245 3.14232 
0.486686 0.418449 3.02252 
-0.185153 0.68047 3.95416 
-0.185153 0.68047 3.95416 
0.903207 0.738787 3.21417 
-0.531842 -0.647376 2.86823 
0.438087 -0.541354 2.67676 
0.394035 -0.37351 2.80584 
-0.459986 -0.40968 3.08216 
-0.277157 -0.376843 2.904 
-0.240715 -0.365648 2.87774 
-0.527028 -0.395553 3.22667 
0.143341 -0.292826 2.84262 
-0.0824641 -0.230584 2.88 
0.349884 -0.22655 2.86373 
-0.0311891 -0.212576 2.87168 
-0.138634 -0.203709 2.87424 
-0.119482 -0.158468 2.89983 
-0.119482 -0.158468 2.89983 
-0.0833272 -0.159448 2.89528 
0.0300452 -0.149446 2.9055 
0.437814 -0.10954 2.791 
0.465849 -0.0200928 2.92306 
0.0376732 -0.0183032 2.95168 
0.156574 -0.0107247 2.93503 
0.355647 0.0423854 2.9492 
0.355647 0.0423854 2.9492 
0.0904025 0.0510421 2.98101 
-0.481208 0.096561 3.82227 
0.258994 0.237306 2.94551 
0.44957 0.245943 2.98956 
-0.146324 0.268893 3.06138 
-0.127238 0.297595 3.20809 
-0.185542 0.353364 3.16355 
-0.209334 0.402065 3.21388 
-1795.07 1140.9 6915.76 
-1795.07 1140.9 6915.76 
-0.0478096 -0.400929 2.82198 
0.46258 -0.368743 2.7418 
-0.368632 -0.36545 3.11311 
0.0252393 -0.288823 2.85493 
-0.229208 -0.290839 2.89952 
0.180859 -0.27356 2.86072 
-0.204919 -0.233908 2.92771 
-0.0710173 -0.126228 2.94871 
0.124836 -0.113898 2.91368 
0.262175 -0.0472568 2.96533 
0.262175 -0.0472568 2.96533 
0.30636 -0.0330508 2.94514 
-0.555009 0.0450203 3.85031 
0.234326 0.076718 2.97954 
-0.108784 0.180494 3.03503 
-0.694967 0.809528 6.86491 
-1729.2 1152.05 7443.38 
-1729.2 1152.05 7443.38 
-0.579516 -0.700142 2.86322 
-0.285616 -0.340018 2.89513 
-0.158423 -0.324852 2.85217 
0.340196 -0.305999 2.85744 
-0.092668 -0.267084 2.87142 
0.235329 0.0289823 2.96757 
0.148826 0.0856482 2.97576 
0.156968 0.153525 3.02154 
0.283057 0.248645 3.05996 
0.353494 0.456534 3.1509 
-975.355 899.073 5780.46 
-0.227917 0.269133 1.36133 
0.367255 -0.410298 2.81713 
0.139605 -0.17074 2.92074 
-0.0214155 -0.154128 2.89881 
-0.0214155 -0.154128 2.89881 
0.767869 -0.110684 2.55573 
0.177327 0.0335341 2.95851 
0.177327 0.0335341 2.95851 
-0.352143 0.0501191 3.41788 
-0.879779 0.215437 5.05173 
0.42261 -0.566622 2.69213 
0.360611 -0.469877 2.81909 
0.623992 -0.383546 2.32159 
0.167519 -0.392414 2.80442 
-0.105207 0.327648 3.28916 
0.258536 0.327186 3.15788 
0.575965 -0.422818 2.23653 
-0.648708 -0.439905 3.56338 
0.396574 -0.0414695 2.9711 
0.271238 0.0434799 2.98388 
-623.967 305.004 3008.93 
-0.614339 0.185048 4.37172 
-2.49144 1.46666 16.4384 
-0.186099 -0.342209 2.88143 
0.411756 -0.0583306 2.84192 
-0.0832176 -0.240257 2.82515 
